# .PCD v0.7 - Point Cloud Data file format
VERSION 0.7
FIELDS x y z
SIZE 4 4 4
TYPE F F F
COUNT 1 1 1
WIDTH 357
HEIGHT 1
VIEWPOINT 0 0 0 1 0 0 0
POINTS 357
DATA ascii
4.999067854928274 -3.9815591701929933 1.1216483138711328
5.071373129829456 -3.8342888174742225 1.1181801131902933
5.1505157470554845 -3.7537937890074686 1.1027665003185854
5.164954529034024 -3.6123908265282196 1.1024270527615312
5.324207946703259 -3.526814769887266 1.123541123705525
5.305317808945796 -3.4592296215185563 1.098048561121667
5.494864002343667 -3.2574810671248624 1.110724506929359
5.47512508628979 -3.102540251814557 1.1097976976321036
5.5564375697939985 -3.076553119195296 1.1292772223155922
5.626786171510766 -2.9330525770015576 1.1139558678782078
5.710632571995312 -2.86016916630708 1.1240393787326848
5.743053670686164 -2.8035837146237412 1.120470234386008
5.7315872577251765 -2.587835522098905 1.1272235481919235
5.8209336996247965 -2.5208476236997175 1.1223694160693123
5.875213326740668 -2.3419826793519953 1.1058875251936462
5.997011145288392 -2.2486864125793073 1.1255949846776154
6.009476969716041 -2.12622906286385 1.1030674686093398
6.013578428446354 -1.9602500859197853 1.1046573924005716
6.060948772181081 -1.8775815397243525 1.1264263978508464
6.0633937738072765 -1.7394969517269425 1.1471382697219383
6.046115647976749 -1.554330970231041 1.1401537267983572
6.167314604883436 -1.4510388763403803 1.1695778066527682
6.234598644511774 -1.3340251667046816 1.1711329239174464
6.247369786156286 -1.2057725272200392 1.1997566828583113
6.249661096150709 -1.0962571463808624 1.1967925437191822
6.22971409234287 -0.9802484054389464 1.1903668962912062
6.2566710401457195 -0.8170207111282566 1.221539299689811
6.283449488760345 -0.6713374492975597 1.2351471701362735
6.278766596742457 -0.5624345500386675 1.2506497761331539
6.275089603297616 -0.4506947597253084 1.2684179690743649
6.254378897414187 -0.31192585916593385 1.2648795177054082
6.426657927109285 -0.11974916333521989 1.2716073962756433
6.29668543998788 -0.04403970244870343 1.2945158978333458
6.3229834232183215 0.041496517655491075 1.309046475611087
6.347847260384248 0.25660247172742345 1.3205142753371615
6.313318778926724 0.34171695461874285 1.3118541187175419
6.297221180403054 0.468223874542697 1.3396756040062272
6.27279839577271 0.6847568408031273 1.337426751191255
6.320171136239129 0.7088237343937828 1.3519719230062186
6.210373681573394 0.8657725349832833 1.388047101537001
6.270473094205013 0.955518613084149 1.3755320360677175
6.3449186781470654 1.1805860464883098 1.3854487298864584
6.241808546590358 1.330935387235129 1.4099281243179695
6.213498716593139 1.4424045785795039 1.4355891825048905
6.1411080546661525 1.4953314595044207 1.4449233885319122
6.084703727062379 1.7200392341703499 1.4430149469726625
6.133182699411039 1.8428200351807498 1.454583226061369
6.099873758772281 2.000162540367567 1.4705488161803741
5.98039153694849 2.085398142455514 1.4755431322709396
5.965598622723162 2.0895867266070822 1.4890810481208663
5.9300009637875375 2.276929871132941 1.4861347601718513
5.891859907617709 2.5050759159862763 1.5111696851527883
5.79935178151343 2.6064850720595327 1.5237207964705857
5.759651876322089 2.6874286039089563 1.5228745617784676
5.6645790554365805 2.765799976455734 1.5495459007424264
5.607141598220135 2.929336055894994 1.5549906855931634
5.656620574356151 3.0819864393743477 1.5698868670566972
5.458803316550918 3.139970933498129 1.5830173617001944
5.434548148710363 3.205944166014544 1.5959806102716165
5.3193424290559 3.3477072671283317 1.5785335187524527
5.329972917006254 3.494041558566384 1.6066336409592872
5.189869457226066 3.5799165633396037 1.6029588493137985
5.141021665902174 3.736841057471918 1.6124953892998362
5.01171416798748 3.8756309809169798 1.6280971684312966
4.921679149292328 3.905204288112116 1.657608416409911
6.184841218222155 -3.9845121490615556 1.308485404242652
6.359289300684379 -3.856677282196645 1.2865023845854877
6.40350210786027 -3.6971979351859394 1.3230955070462025
6.399514286981181 -3.5226424890661425 1.3128984613306802
6.50221938080343 -3.472929217444606 1.278580062903141
6.612238165388299 -3.3115552063644755 1.2877521162494578
6.654048480894911 -3.168731690358824 1.3165818825918025
6.687702651881414 -3.076044980136276 1.2927577781046298
6.751097005212894 -2.8461867953483373 1.3044562359480716
6.8498874710997235 -2.7302188154150424 1.3070587443362376
6.888571838026663 -2.6063400463480293 1.2931966322769775
6.933164261630903 -2.450564083582931 1.28818106122455
7.055172467856779 -2.314247208231212 1.3217107657870037
6.987700209937795 -2.1614142698364573 1.3078635987065463
7.09239037938566 -1.9729053358683724 1.294703043283584
7.060509825855079 -1.889134779033776 1.2980419385144228
7.130739430173904 -1.7091173975000604 1.326766814134359
7.175062206985547 -1.5385515865701842 1.3501530228741099
7.259848626638475 -1.3920138920839824 1.3444640009978148
7.254990975784334 -1.2626000950089846 1.3834694476839478
7.303046518123706 -1.0748530344208809 1.3737350686582124
7.375997564218677 -0.9345015136612638 1.3964184042884704
7.279318707980741 -0.8440803151664651 1.3955671324507617
7.337997534388886 -0.6296356343424118 1.424305416896428
7.2897800875465375 -0.39813447215439557 1.4100724821082833
7.297693933013579 -0.340244767530569 1.4496390924534799
7.356963727654311 -0.15546167787298612 1.4750136879746987
7.347297643909186 -0.005861142901152 1.470423150048129
7.415085095876463 0.1112383510352155 1.4750179439249589
7.339510258013975 0.25204558429524004 1.496507247793267
7.4178486263085395 0.5391117608589611 1.5144451682042515
7.340082475355392 0.5887322126547532 1.5322411599228667
7.336611993571186 0.7551820888433075 1.5390235905542864
7.219244291197769 0.9358395570600772 1.5527367113601664
7.346537312745699 1.044166305750754 1.5843227240095572
7.2021713104329 1.2239709674392738 1.5898861074263213
7.218199236694536 1.3795982940255034 1.5898111517226472
7.147576463621065 1.485647261826877 1.598002698751176
7.233452334192433 1.5974516714555635 1.608199217812743
7.120799818157405 1.7926739635211826 1.6424541665768837
7.005116986515824 1.893762121075896 1.645693052213915
6.990778652512815 2.0717899872964356 1.6265578930557498
6.967700968178136 2.2571730444597042 1.6835949472206138
6.987705309632476 2.446783959236186 1.6936927253860077
7.0107112314157645 2.6040407552305664 1.7085357878018959
6.906984190509302 2.6411600921244363 1.7194674293215229
6.806201758941978 2.818228910581103 1.7095379625406433
6.681308119881393 2.8985932681274367 1.7400548695211397
6.717014566564632 3.1049750786481236 1.7507119258106918
6.620092859527043 3.190130579573903 1.7674364106620475
6.486441994659905 3.455333861524008 1.7619818517464096
6.462590677388687 3.555376105042135 1.7836275356962894
6.283862347251293 3.693195836870784 1.814334815319088
6.278642657651197 3.7429927171557718 1.8064222915703358
6.1977542354189925 3.921876615078564 1.8244632029786108
7.768289554112265 -4.002666716011238 1.5562346760489552
7.941267774394027 -3.8413744447963647 1.5374587931060015
7.973721019221007 -3.6649681908616545 1.5592912279878688
7.980385211635984 -3.4361545664305595 1.5466513489548412
8.09696636903875 -3.295510934483501 1.5419815181154626
8.170867021226565 -3.1665367513592635 1.5469194491572968
8.329092964353379 -2.9760989212014572 1.5273679004493843
8.256178394501642 -2.7956599081735463 1.5264118232515225
8.362131257576007 -2.598474046656157 1.5492714606923712
8.338859904195836 -2.395940996996775 1.5372690466832986
8.502081455529705 -2.310799705689336 1.5456710015406347
8.520982969528964 -2.08208889964221 1.52316153342462
8.604727854853767 -1.8961862238146905 1.5273389398300021
8.635715780139005 -1.7253724618186812 1.5682515165828277
8.584501503801931 -1.551044405000013 1.5852807230168298
8.694431298830423 -1.3363461258622469 1.5903275376912587
8.614793924948897 -1.1516425398521861 1.6102217918599153
8.659179382280174 -1.0426265051210937 1.644879171924255
8.767763427388799 -0.7823849847163902 1.6404435596270979
8.828668500976715 -0.5760069050336657 1.655393120839737
8.72982915924815 -0.3928370681097795 1.6995441146823607
8.71266387561815 -0.2957159357643663 1.7115007749264002
8.705988442632343 -0.027486773770437775 1.7080421753822241
8.767972565737479 0.14546912743204138 1.7236935276445262
8.698383124494852 0.30782520429499727 1.7413127147488228
8.722375236355768 0.48303243040148713 1.7462198181561706
8.638355693093743 0.7168954672037849 1.7672267037406821
8.723349819792105 0.8762554507347899 1.7961790327928124
8.65414284155688 1.0005467530357923 1.7901778097961276
8.687734408022317 1.1423127194049372 1.8210777706972425
8.658923608720844 1.3689164385481218 1.8489052831167931
8.678188690807897 1.516163390569603 1.8478025457241571
8.574174500585386 1.6386751832689515 1.888395755625727
8.52817206260533 1.9295128302535736 1.8865890373650316
8.49117749209648 2.0955123197192083 1.9089465997275161
8.547587586679338 2.2168966193077115 1.9141284554872118
8.406879115699008 2.5107241929283295 1.9147073893747932
8.336083074633565 2.6732553622339696 1.9506823606744472
8.318989758248875 2.79440310413046 1.9754861167831481
8.25209476987441 3.0240770228916825 1.9776318838703288
8.098243831617078 3.1364185504076008 1.9981691123760557
8.076021777005296 3.2612047685608183 2.00558484189164
8.040757131977353 3.459646476025338 2.0178774668875215
8.06217618429322 3.6526919570268275 2.034768722345058
7.870548819682388 3.8167026577297274 2.0387715982448027
9.553664791449911 -3.9142814708782785 1.8423309839844497
9.576153882405935 -3.7842087724585336 1.8349018488668873
9.693228031627674 -3.52661075498686 1.803516821651286
9.839856411483382 -3.416796788881593 1.8477344248755083
9.837823246195367 -3.0165988999863127 1.8067752500667127
9.831337438149985 -2.9241515760653436 1.8355340547907257
10.02677910563033 -2.777485743904467 1.8363159762907018
10.086467186483 -2.5481071468263594 1.8275903163619807
10.040926354242597 -2.3164995399864234 1.8121457236858907
10.146653862919818 -2.110635582009595 1.8262402906463073
10.091952975139074 -1.8610764723307796 1.8147915842461926
10.26467554354345 -1.6775010427880936 1.8447108583078202
10.304156675903297 -1.4637779647024245 1.8545819711223595
10.271330306835985 -1.2422584107309083 1.8800280004828485
10.199213603836611 -1.0206903915807677 1.9131797183050183
10.312142727705204 -0.7807564818440849 1.9270349101267248
10.383365440560103 -0.5230168031762563 1.938148080139189
10.252330930793066 -0.39629289600263834 1.957797459596925
10.334359195427217 -0.1672454091605136 1.9656264245054604
10.344722376807193 0.06598194987819932 1.9998044997311175
10.462696931425864 0.2976560063840375 2.010220646940381
10.221969455954206 0.5009186531857402 2.028360037218715
10.32209714154874 0.678288418751981 2.047764808709912
10.298293830775323 0.9244318410801783 2.0888788840718404
10.286761953308698 1.176031389169981 2.0994031362737977
10.235897297833299 1.288758555976232 2.116280242494064
10.215295922974853 1.5305711551584966 2.135631506875575
10.23735361113177 1.72310568029966 2.1732764170198147
10.216767641540228 1.997607796568023 2.1573484682390704
10.158893105705559 2.223381444110744 2.190254289444808
10.162044248529778 2.3582787849451745 2.207587202791711
9.960841182046012 2.556735908668467 2.23261942828624
10.033903232406349 2.889151256017841 2.249844749629281
9.893165189791432 2.995489384398147 2.2663451026764805
9.828020446526523 3.238680567364538 2.2926587130482723
9.774105934846384 3.504734989125765 2.311042175277893
9.687056199460804 3.6394011290986295 2.3214875823334964
9.6232152259112 3.81093568144938 2.3336181379741627
10.87778968551005 -3.9884401463741312 2.032329362407765
11.076233979604146 -3.788571038511965 2.0314741496771425
11.015694215833 -3.496069039448398 2.0308816226507487
11.11823402100484 -3.2132950888688985 2.047798429426511
11.149832332587794 -3.120716844973878 2.052759122048355
11.327299002327985 -2.7409119077554887 2.040287680699118
11.324543837303978 -2.5741357333260897 2.0511594879413493
11.280737730419027 -2.432114181436149 2.0276534041052674
11.359958013508683 -2.1360778056243723 2.0509811751603557
11.431671934694831 -1.9237973562740112 2.055170725854471
11.358816287991072 -1.5934285694465276 2.054912160383384
11.499801324474973 -1.3961513635880773 2.094395382675111
11.487776777402425 -1.1710892795466605 2.122527764331125
11.581393623031138 -0.9060168157699523 2.1353541754065217
11.561047449258233 -0.5952840011888324 2.159387984138852
11.559105189426287 -0.39859302020438814 2.1965186719512317
11.556633128364737 -0.15386162498458034 2.208353337395776
11.635048820690862 0.05822492713077018 2.2427390930991953
11.561349342428247 0.34702057858611823 2.235986497808236
11.512288060321515 0.628430211336374 2.2586242878187472
11.455797936385494 0.7946541227938844 2.275131401121937
11.539379877021563 1.0694080453362682 2.299979195741611
11.575091191709493 1.2428715962408954 2.320393736910482
11.469571651580127 1.5085937697585772 2.3464483050600773
11.402087382086403 1.738504875275405 2.3697507146592804
11.488945937385154 1.9709519832012397 2.3982697962595383
11.32297316639281 2.2935972244111538 2.4353766817488647
11.26688219428052 2.45075961487124 2.4320166975190833
11.204075623844176 2.7199616227915504 2.4582743293048614
11.211115416924827 2.9241704576166883 2.446792381732785
11.138107983116104 3.1996462980191507 2.4913965081071727
11.044465761685416 3.440942095293157 2.509062685793682
10.986377259875834 3.6637159251570806 2.5248560893377667
10.88562578690856 3.8553581443773446 2.5648138831743204
12.54164462518517 -3.941683458163347 2.3059593620586716
12.575268095548578 -3.7414314144359215 2.3262622912037534
12.659038764817641 -3.459822892377179 2.3223943163450724
12.759349825034967 -3.195541498789344 2.307523088440008
12.789500364944866 -2.926852153733775 2.323167239911688
12.871751982531558 -2.6530635820740986 2.2929695194286013
12.837795315083275 -2.415495290544669 2.2972012248188816
12.884811748681772 -2.0683155451001904 2.3044918755141213
13.091265380844689 -1.8091921354846718 2.343839290201486
12.917038805297924 -1.5878693016404202 2.336349406127634
13.10310009014265 -1.307633724134043 2.3848918865708457
13.082588696044239 -1.0683689308043576 2.4162349400749332
13.14390438971771 -0.6506291239359847 2.4139569162375705
13.093462713389888 -0.4209266010064914 2.4437002131690706
13.134813317734663 -0.19273380458236083 2.4677557795001848
13.045399363406693 0.1266008284869161 2.4861159531591985
13.193435896578935 0.3479191075746302 2.499692248582788
13.102845995284634 0.6794874485936299 2.5393030463059665
13.134941587862672 0.952085650830401 2.5725225487101424
13.053158981595281 1.2054624182838116 2.611437310457488
13.04253547908589 1.5280142891663038 2.628755143273368
13.09158283376487 1.762217721795164 2.655702515550494
13.009792918673815 2.0282055069471197 2.6580082191446768
13.006207839042347 2.2913625509456366 2.6877664896942854
12.846873726418053 2.5416894323558576 2.7128919001897662
12.8752010379324 2.839444429409706 2.7479665239940876
12.808286661204521 3.1288891118901696 2.7707431480399443
12.661510342200483 3.2922831133214125 2.7888171992342814
12.547151528285891 3.6099139637234052 2.783551077815751
12.577041485537421 3.8808865246653377 2.8222010535411
14.568781212588728 -3.9444157716430763 2.6520708910467596
14.680369047782696 -3.6603154470126316 2.67972826374228
14.741744455890744 -3.389009309588478 2.6564255632163065
14.884445994447578 -3.051938779535265 2.6523072176068623
14.926794397070061 -2.7288567907735577 2.6675776917432645
15.055632025754713 -2.3850699211934003 2.6733391952591092
14.994917117751257 -2.096039895598928 2.6822616016801524
14.960100040855938 -1.7680024903075557 2.698072277640815
15.13451657601235 -1.5008683946291728 2.719068070076358
15.156091945238815 -1.134353326318737 2.7262252513047383
15.121100763233256 -0.8352397227542689 2.773650947189765
15.160346536168916 -0.5018866506739951 2.801981965686589
15.138883355928854 -0.17083421308315125 2.8387125070632435
15.146646983179625 0.14536548100993202 2.8596493511522416
15.134574365861665 0.4279808855236203 2.8786253450829364
15.106182138236397 0.741444508404369 2.921066701655472
15.095657000842452 1.0167199367212734 2.941278036430922
15.107797949930287 1.4158719377243647 2.9737026940673372
15.029080297856227 1.685049362839991 2.988133090731064
15.04231587564051 1.9973473141062708 3.0253080638513996
14.931483304232874 2.3603405043147356 3.0502666563933034
14.924956547711675 2.638801775767557 3.0746460538101026
14.87352238861795 3.0227190438771676 3.0815661105964085
14.785666794530842 3.338459642312411 3.158722818058072
14.7769632476576 3.5859543229987056 3.145298707525168
14.611680743109996 3.9328959175280054 3.1830413196399516
17.430649545654173 -3.940159516221287 3.1676119289222617
17.523302596056542 -3.5285032485018557 3.1437750767829145
17.57712525096053 -3.250420826175598 3.1668612118306445
17.622548672337693 -2.9021384711763534 3.1583871933320276
17.752267697829378 -2.4717369679117946 3.1739725158609353
17.75550589430199 -2.095805341831694 3.170164972842987
17.76739229620673 -1.7147479414597178 3.184152489155259
17.789291210064327 -1.4088122269227557 3.2063248778140236
17.77112007462915 -1.0691084528139139 3.2263256273523013
17.937640648176018 -0.6096061111368021 3.261796716268325
17.885911816063892 -0.2070712482038144 3.3002814186878804
17.824390259521078 0.07305717246620407 3.3395818216388387
17.94707457375851 0.43395278515384716 3.3742017674256712
17.822849048081075 0.9024378301304706 3.3859855404421912
17.86445623413609 1.1929501941490392 3.449942793701384
17.79982447730073 1.5970697055248595 3.4602459855613437
17.760670537500378 2.0530480113126064 3.506188184734304
17.664623101261938 2.2747922308844895 3.5324385394317965
17.702523827240352 2.727966970418729 3.5481034254969765
17.50212565474922 3.0085346449380532 3.602790148564772
17.541366500579453 3.4521593006925646 3.6222598823854275
17.519384146879336 3.7892461396384713 3.6501780068026157
21.370061666973285 -3.9686927254585944 3.8599819666910515
21.488623551147914 -3.4659836483114304 3.8483839587188036
21.518513148745466 -3.0576835857351616 3.851968296697768
21.69133741336047 -2.59679829920058 3.8475416437825927
21.598249942972824 -2.1305510561763294 3.849163036534552
21.744326202024332 -1.7276516001743232 3.887126238602315
21.77151968879753 -1.3048867615687558 3.918609445768452
21.81805253123805 -0.8042501381267397 3.9657145450723794
21.79090629847961 -0.3380265591143345 4.00961506116275
21.83211401707431 0.13723506655143008 4.0435744299258936
21.831540988402388 0.5748526390466037 4.057886541460424
21.791860228324254 1.0347984244093718 4.120797290632744
21.72772146246714 1.42308650520203 4.148792134707256
21.724441040520436 1.9426287307679977 4.179659632220302
21.622791342615542 2.4329657782154768 4.221955155627617
21.632933408907473 2.884502594929974 4.280731626848659
21.634231569392263 3.3070127632823727 4.3229956438033685
21.441720528061087 3.7558792689983957 4.349906680835556
27.67434715186262 -3.9685406535742853 4.935152490126809
27.68731793468772 -3.3839262627464817 4.923325814690462
27.84598218542309 -2.8177172746741137 4.932032829663278
27.8050850091978 -2.2358438824871714 4.925081229438172
27.81172467639786 -1.6237894710104344 4.956050534071808
27.92374450115697 -1.0768724491474235 4.9926279276455565
27.95719867087688 -0.4201838883815778 5.065603375640343
28.021479258168952 0.11582099735683628 5.117222883866817
27.921302662876602 0.7637625183067679 5.171310776722156
27.88451196708228 1.2550722552727789 5.2215204656628265
27.87277534328412 1.8707799199353534 5.283953432628526
27.764112820929217 2.5301187238419205 5.306116435093998
27.827645015602435 3.012482792019288 5.388424805097118
27.75930923236869 3.673268263723349 5.432832677473581
38.735217526168164 -3.985268845641911 6.859979906538298
38.835225802692555 -3.1591360834422684 6.850130009770149
38.88078788981047 -2.2988573259457623 6.872803358225377
38.99026277798115 -1.5019705256241846 6.908377266737387
38.97315959503311 -0.7482125114180711 6.987612564383616
38.949838337431196 0.20291218056492755 7.059003170329627
38.979270354304155 0.9724858786964413 7.133966297072559
38.900823969414866 1.7433005800980603 7.210747505650008
38.8365508007171 2.550012188686618 7.271522912872402
38.88189558556698 3.363873366298594 7.340552983650485
