# .PCD v0.7 - Point Cloud Data file format
VERSION 0.7
FIELDS x y z
SIZE 4 4 4
TYPE F F F
COUNT 1 1 1
WIDTH 338
HEIGHT 1
VIEWPOINT 0 0 0 1 0 0 0
POINTS 338
DATA ascii
3.2977578334980744 -1.9368458999145237 0.4145012336502328
3.3482239215948013 -1.886045156260205 0.4191468761213139
3.3348257033875486 -1.790236279410811 0.4364661319112135
3.4600111386069248 -1.7548100662381352 0.4512996412295732
3.459759114975185 -1.6614419041296489 0.46272855840092486
3.456961555855323 -1.5717944729788818 0.4745788249440717
3.5143704627538406 -1.5348618233071125 0.48485970716395077
3.5545233590835967 -1.4665607447640756 0.49292306185471085
3.6068858656826666 -1.3458196027875429 0.5065425773605631
3.5590901838944196 -1.2623105616771266 0.5273626881914764
3.611391953400639 -1.2102202783154115 0.5323430216173776
3.624417503091165 -1.1435047142135304 0.5351928747451913
3.6581729477735885 -1.0656181277692158 0.5502038673311705
3.701726281616111 -1.004089899104061 0.5666758194071697
3.6868276152482604 -0.8987731192209143 0.5790214581672407
3.7437741880697435 -0.8157346838717598 0.5848588196995546
3.69715895677895 -0.7444069350526645 0.5959832556334291
3.7686731786213166 -0.6423026852720292 0.6132381254855083
3.7624184917449215 -0.5822699879601221 0.6084653684525644
3.8202363578493457 -0.5196049056516929 0.6176512378179023
3.7460285968028684 -0.4379869687897036 0.6230165950340846
3.8247232417211032 -0.3378092069036962 0.6458869178377494
3.8694823222562342 -0.24428320567182937 0.6551488362649105
3.8139743243772815 -0.1705476982192541 0.6563043233680252
3.8782335394374146 -0.10150357901590575 0.6633624853554213
3.828335299533004 -0.04836295487697864 0.6767289527199676
3.783210371841622 0.007026044989712765 0.6788178735041556
3.8394207193094645 0.0910557958378305 0.6849002692936748
3.7671262680387487 0.19891475930326802 0.6897067267981244
3.8085460170877554 0.313243291033805 0.7033285224943625
3.8401537040947704 0.35256068429276943 0.7016099331982557
3.778571834174734 0.4709847642592929 0.7059636399247747
3.7897887687513507 0.48685209368120064 0.7103907124590824
3.803303455761123 0.6262212302662886 0.7156080570081309
3.723079293029324 0.6676260889002192 0.7253938652271951
3.7759562041848773 0.8024763241021978 0.7304029786858184
3.668979190224532 0.8248712680819512 0.7290468530065226
3.697986052143638 0.9242137581490911 0.7390365702443692
3.668843307484718 1.000038038896488 0.7379447290464487
3.6318141335710044 1.0862133326012713 0.7388176374417877
3.630610084675927 1.1425786013005845 0.7481360873706979
3.6658425301013957 1.2200612522568757 0.7435724434839943
3.595682159022842 1.3237313686456802 0.7498998645028794
3.5815789722553517 1.3770621415935957 0.7462179116231066
3.535340134743996 1.456423123423577 0.7547917277688695
3.5014437515098784 1.5277222528453038 0.7571894326345804
3.5072866655072557 1.6143384910867224 0.7514733622666708
3.42866808895192 1.673454214944972 0.7511583741879112
3.4286953598278 1.7673161846909873 0.7505652991901263
3.3685204094693906 1.8428898249324555 0.7515897648907298
3.378690580313689 1.8815925436439496 0.7521087651064817
3.6731168809830717 -1.9561266725460873 0.48355634660664754
3.77429282177608 -1.8734606089030044 0.5004523405762539
3.740874504544001 -1.7789667542076841 0.50780882458122
3.796303122679693 -1.7206354897807725 0.5223451561852074
3.8095425045866684 -1.6321198203999463 0.5363393288683806
3.9226837197724245 -1.5108971973014687 0.5561255554898181
3.8639506159519756 -1.4650083935922955 0.5644669949550364
3.9627376184253698 -1.3808958568975782 0.5773093468388775
3.9958619339703487 -1.3263943203933615 0.5804726672933096
4.009125553359321 -1.2080779315594978 0.5972753492844564
4.02301584326394 -1.1225800418623568 0.6151560516530978
4.000988587977511 -1.037288977305459 0.6209146676129677
4.005601350180538 -0.9737818939343754 0.6309456297822964
4.064871340535231 -0.8544248112093886 0.6444736021229353
4.152278809198697 -0.7774217729548021 0.654430438322528
4.091564737409386 -0.6962684899304861 0.6639017987138124
4.176856897582265 -0.6459342581712404 0.6752274540285299
4.114107142037721 -0.5283715768625505 0.6818500715621
4.15518103969308 -0.4405824559797469 0.6931977002251376
4.214762807712596 -0.37894501865146973 0.7030277230715515
4.154193944265834 -0.2574294727746597 0.7056896352971306
4.181585388240898 -0.17017336614156342 0.7224049740484776
4.122888780662087 -0.11613229938667953 0.7270451148480951
4.149777674146117 0.019268070235695645 0.7348483267174463
4.140412030687605 0.07785776022993911 0.7445797607751992
4.16688893187902 0.14229211206667705 0.7509347061252938
4.200947458063607 0.21117090671839778 0.7607461928269991
4.177456906646615 0.3729852437596325 0.7634399589369587
4.125913407999951 0.4171289048544014 0.7644963460448951
4.155946181488018 0.5139525891250109 0.77560725447401
4.086613451993089 0.5727791857801963 0.7842694771218556
4.1653434174499155 0.7133527832617673 0.7815463733726948
4.109633526301223 0.7805594841508907 0.7854827219604239
4.057551191960262 0.8686585251455475 0.7912137446572387
4.058642870451323 0.906303687979816 0.8036300089263209
4.019502117624093 1.0350117199172832 0.8039608681902634
4.015135126676633 1.0877456907600627 0.8112875268085196
4.027578200227327 1.1728023069131888 0.8116454635911361
3.969156147960021 1.2907153336678772 0.8186697957621445
3.930948234314882 1.3845561721770072 0.8164191371236567
3.879938295901984 1.4091322897671326 0.8169528637629181
3.885130514958772 1.5310128633534577 0.8192864500713618
3.858770676755504 1.6038239863756758 0.8178633208843255
3.793921697026632 1.6718042317259598 0.8157670593954212
3.8009446784561702 1.7473839410163456 0.8201346615341699
3.752127245539422 1.8622354180268006 0.8177789690469391
3.7124266264715544 1.9334048395922423 0.8286965194241896
4.180448387954825 -1.9483474816079933 0.5548989205582602
4.193939694601855 -1.8293816561389975 0.580445191591589
4.237923599123757 -1.7694812350728268 0.590486135225444
4.291251942379497 -1.7126154863054988 0.5976296559011764
4.337118071237869 -1.6115409814647697 0.6244273935361168
4.322249243731548 -1.4988872685289123 0.6321148450820098
4.331199877669563 -1.4359918997304837 0.6486436612775041
4.394756004961411 -1.2982234389120022 0.6622802439197796
4.404803420562351 -1.2263949536090502 0.672691332120662
4.440848960400458 -1.1272967590164742 0.6778834332903069
4.4713875720369245 -1.0096874596416001 0.6915056119058681
4.504901929010789 -0.9364728731954561 0.7083327728891039
4.486577177442073 -0.8872465621334105 0.7156200183596915
4.508594541268103 -0.7289957841493034 0.7322733913186372
4.631666035583993 -0.6376054175478547 0.7401515761626097
4.54462407599737 -0.5766971396747006 0.7556746310819267
4.494654051745577 -0.4807564098636631 0.7621920624082483
4.578788982253566 -0.3703752524013414 0.7738496246248802
4.589602415599496 -0.2509859486076493 0.7833432644983147
4.577260940942368 -0.18347269548572562 0.7957362356575499
4.624148128737593 -0.07449045756700054 0.8026782906324309
4.580250475140098 -0.023139263883447343 0.8169536371392861
4.600135452512088 0.08603251239270422 0.8204789986820825
4.594133208771804 0.21394791628361742 0.8248231582872678
4.591779388308079 0.3288850431206693 0.8348329110224014
4.605954522861671 0.40117848146157836 0.8448318286915861
4.53001905848015 0.46088879012648204 0.8493407689726639
4.562725910477768 0.5703625096675898 0.8542698976383245
4.545969914559628 0.6623081462767912 0.8511515725188061
4.451151406263226 0.7467474739732627 0.8650090211280466
4.548066682363781 0.8646544240224888 0.8706179521582764
4.4895000727451935 0.9440335640396916 0.87338465274547
4.423399613572279 1.0396010070143606 0.879858656167624
4.506881519770776 1.1429622379886188 0.8911041834204609
4.379584007246867 1.2343232441116625 0.8892732392379812
4.36974503059544 1.3617793696911138 0.8938543181488697
4.3745858760381395 1.4202083617648413 0.892505202839831
4.3228635317218185 1.5277395096700228 0.9023774187456542
4.335410532473704 1.6070723991907043 0.901657083772655
4.270782758401843 1.6986106011361124 0.9009480306596003
4.228264720975906 1.8114385667023643 0.8949011931857792
4.2134823686818415 1.8808806390551442 0.901925697406845
4.648619796009852 -1.9482139949668085 0.6501960399220931
4.794534893995175 -1.8828943789699073 0.6712996085206013
4.741855453147822 -1.7777757458756906 0.6880405498042179
4.798456814904248 -1.6487041063972763 0.7038339533162601
4.843124834496068 -1.542803119268988 0.7213542762797249
4.848124505307076 -1.4364925762792244 0.7228929008582857
4.900548215898834 -1.3234786713509246 0.7494759973265822
4.914388447909589 -1.2241503109203018 0.7621164380384641
4.917922921098867 -1.1022262673473566 0.7766646344664861
4.91742895847102 -1.0142973868622709 0.790060695861297
4.9590795185506185 -0.933306509457023 0.8019951255423866
4.995564511124098 -0.8390756387372168 0.8124155065915571
5.077879194650867 -0.6927483871575828 0.8264268211644205
5.049450718010473 -0.5910545101728976 0.8318890490384424
5.007766782476071 -0.5411818403896685 0.8468082848580468
4.998569468758962 -0.4017963038919742 0.8608341093756392
5.084932955476021 -0.2835869058233111 0.868316155985961
5.039996118939721 -0.19344374963095923 0.8797681203223359
5.109723005538064 -0.08985008150477339 0.8859401151391672
5.112179817995739 0.032724730310896656 0.8992763779793084
5.087729724540863 0.12719381420192946 0.9067881037600692
5.027418676318174 0.26361999320673957 0.9165504035803573
5.051275481711123 0.3536705516074755 0.929289301534406
5.10240255409068 0.4535331013587044 0.9246639550571054
5.007655579830065 0.5651077254141537 0.9423244671570055
5.065647569254752 0.6486565335785153 0.943211224001564
5.039497202239289 0.7380933843304938 0.9549305976450523
5.025647011503087 0.8672422621392953 0.9648694319986479
5.007866652040575 0.9725175913629533 0.9599719844227538
4.972143024653937 1.06530340864353 0.9699930243025637
5.021844688697983 1.2061924433332891 0.9725973070552758
4.945697140602264 1.2984414176141408 0.976441645244119
4.84554441689137 1.3676029818629258 0.9814317383086651
4.868930626362074 1.4630039498169922 0.9895167298504439
4.829948834073545 1.6063191504603975 0.9896363051197927
4.796079098025496 1.6923076149568341 0.9984372426155184
4.743962040025518 1.7857342720047993 0.9947696786498527
4.729901156689065 1.9021768628105693 0.9943859738430564
5.356018048583328 -1.9415140119801868 0.7728290095324761
5.402089992131521 -1.8327100097523525 0.7912261745248749
5.416945161074147 -1.7136444491681226 0.8084021337133146
5.426697756305789 -1.6101178940040517 0.8241803823521391
5.474221738456593 -1.4874598828682808 0.8322630140505536
5.5246601475431785 -1.376206176049854 0.8498273493865757
5.572471448404498 -1.2817137719838498 0.8672879991848144
5.58682750462986 -1.1398423874362362 0.880320755159495
5.632164981190687 -1.0295666287995273 0.8888928135821005
5.631185888700926 -0.896714265677585 0.9108762399743303
5.632157078741898 -0.7914529913112521 0.9133156119742574
5.627302884519235 -0.6974747229541535 0.942644422344085
5.608481305547891 -0.5670983817605685 0.9454767144384195
5.689866790801213 -0.4529155383170669 0.9577216440332074
5.6223389693838275 -0.3294394706973203 0.9726090604015939
5.636941100337187 -0.19487225554385706 0.9844101716169041
5.642359139980178 -0.07131173385342379 1.0020608742072101
5.716141341670328 0.01894868907146161 1.0136558513048248
5.6830901156867615 0.1564890387218978 1.0177980344617221
5.686384616948575 0.2477210980877344 1.0256660094183203
5.71485231171948 0.40993955461911735 1.0437488649961641
5.70723507246077 0.5286212658715747 1.0360923221679992
5.662722484642644 0.6199411266589674 1.0459403398293414
5.630685890006816 0.7332582648201115 1.0641936863501595
5.568596695336035 0.868233695469725 1.0696426111344335
5.595814738513615 0.9790567486825268 1.0688191775188751
5.583651248519589 1.1039280911065776 1.0781053529637366
5.563133349359281 1.223747872776594 1.09027433406865
5.498023202986036 1.3208802686972774 1.0915359309400383
5.546167398726676 1.429525259804729 1.1055626159522014
5.387468961090529 1.567876313973414 1.0985855069250412
5.391661211502176 1.669547239469775 1.104761411593825
5.494110528124013 1.775872431186319 1.1107068517803265
5.353113600962911 1.8824660875215549 1.1114284154070508
6.187939271818332 -1.9334435224257196 0.912758291879061
6.178522245931563 -1.810108529039903 0.9351976717647523
6.161397963581131 -1.6900596772846388 0.9545039318342894
6.297923197567822 -1.5661396641119123 0.9665106487315679
6.292399516734312 -1.4237791659305759 0.9830991185880212
6.301578186509917 -1.2997982508433448 0.9957471414822671
6.276360419807869 -1.174718196476122 1.0112291948369065
6.3403724127910905 -1.0330055941381966 1.034257630964082
6.39869163658977 -0.9013847922460055 1.0527004213711222
6.359895650205038 -0.7650796071877398 1.061165510136018
6.4394007803149425 -0.6246261084808526 1.0811855504763794
6.438679574874718 -0.469608027743809 1.096424731220681
6.4346494630140105 -0.3579116845745258 1.1049065908864144
6.410806135113534 -0.22739898721300936 1.118955588812196
6.467806902556145 -0.10595667614026466 1.1300822264475494
6.419647230779065 0.024007681340174024 1.1467864028238626
6.460033021121573 0.17542307482282668 1.158460371172125
6.425697560076755 0.2976057024354361 1.1592978359925592
6.4212882256500246 0.44869828257025635 1.1854365758862422
6.444408093486346 0.5594674110927899 1.1791742588917378
6.411086070026729 0.7105572511154935 1.1890709961762675
6.394108500576457 0.916576415535024 1.1925053114728708
6.3317667266653 0.9622639090105832 1.2101765395471489
6.332602220526709 1.1321810831527885 1.218251016738899
6.318318582581772 1.2717518514683457 1.2192387645144296
6.28805130569619 1.3844016190560866 1.22889569517901
6.260132692639771 1.517754102138584 1.2374222062227904
6.243655072972545 1.6500084047852683 1.2403858602995232
6.133019931830698 1.7831063527224547 1.25847211371468
6.138236334806932 1.8575679148885211 1.250851691290252
7.182992056541384 -1.9297515257154414 1.0991367189337984
7.215316077813911 -1.7673830384478126 1.111550519050462
7.232665002681582 -1.635059683629569 1.1351534495628437
7.299028959144695 -1.5071402909057208 1.1563261973934682
7.3045295120344695 -1.348987522324351 1.1697675244967245
7.335186174655749 -1.180359976285707 1.1868638790663986
7.362410430696158 -1.039739002879623 1.205305496304304
7.416082011866463 -0.8332344289953125 1.2202376569148266
7.4045792616949315 -0.6991109833919783 1.2424509076748873
7.4053220755930385 -0.5633032119117416 1.2577517347200782
7.445314075868075 -0.40355062137886694 1.2709470189379075
7.455625508851863 -0.23414794790221943 1.2867313625817942
7.395090388900176 -0.09745194479043762 1.3047677930896493
7.424701669194357 0.034038337193878096 1.3169745808913784
7.439693479872721 0.18878014938178292 1.3311051288330826
7.442416681766086 0.36861985851384343 1.3361067261973731
7.421694545773737 0.5089821746696617 1.354078017640486
7.411852720086221 0.6705169229949619 1.3634548986466417
7.34664170279852 0.816783508761966 1.3776363081722496
7.329495289665105 0.974958328117017 1.3872863715943349
7.371201942639502 1.17627070943812 1.4005659587946935
7.313332911204024 1.3291664783495478 1.408850309176591
7.25448833879308 1.4487330949803132 1.4057990347525573
7.251232841194926 1.590465821180782 1.417131157329201
7.220273365856852 1.757861812886046 1.422816814873306
7.204767475920323 1.9217891017542583 1.432916111074375
8.571820597982951 -1.950592581904187 1.3425047208643683
8.576370943238425 -1.7712974992191663 1.3615743169580905
8.63461918661088 -1.577797193588473 1.3844255094765767
8.667423990968787 -1.3954647933297473 1.404169532368177
8.629890891168204 -1.2023864157167479 1.428806008435442
8.688474478959801 -1.0272403315517054 1.4523236377183613
8.762362892511394 -0.8490075230872536 1.4615371409907234
8.765678454426117 -0.6775007855114957 1.4838951050528242
8.785160843468521 -0.4631816386041044 1.4971688549888338
8.774038085664566 -0.29585444987218323 1.518774460156149
8.73099565865448 -0.13483135145070257 1.5327417000148003
8.770109557242328 0.05982389227151656 1.5431273137450765
8.751906517460672 0.28123492237389347 1.567845998920824
8.77784941527351 0.4151374208199702 1.5773108290100029
8.744683796904694 0.6112665048987269 1.5966734359423518
8.768792123550327 0.8178605054694658 1.6049114565145932
8.703937396566563 0.9495566039140213 1.6250506476892852
8.69375145419706 1.164716878622468 1.6350757648646483
8.634161115132043 1.3399701423485313 1.6438558516086048
8.679627983342503 1.5141830857194638 1.6581256798126092
8.59057476618646 1.710751083678871 1.67164528470065
8.534017595265226 1.8780561269928289 1.6780017923085635
10.50513248585157 -1.9373379946148792 1.6868484589388828
10.581519743076692 -1.709598567683278 1.7141013335894537
10.56900168484257 -1.497252077291844 1.7420713565093824
10.64766506388243 -1.2711587644498874 1.7610607847117141
10.634692275134755 -1.0553704870966802 1.7861569279359901
10.632764207376672 -0.8282323432480544 1.8086762374117402
10.701106003851438 -0.573287822944083 1.8303219146965068
10.707022115805348 -0.40057715360127855 1.8470904845457035
10.727543092022715 -0.17659754985162035 1.8761873258033788
10.740096076578121 0.06343959272789167 1.899709558350076
10.689454029187116 0.30770850555269075 1.9196436955776786
10.70789911876865 0.492362309995323 1.9363735549033645
10.664404196850208 0.7092663192801014 1.948027906036966
10.722103991615441 0.9686067539708465 1.9631488681897284
10.564167154489338 1.1976244895467092 1.978296415647197
10.587229482780026 1.4204635287595988 1.9986041374888213
10.555143841790352 1.6317796994340723 2.007051116000259
10.528893977660942 1.8712835077633259 2.0207039605482096
13.58275401741762 -1.9569538952741554 2.2275042690119
13.606672130515628 -1.6627690147463268 2.260360567833211
13.655454020008046 -1.3722384888328085 2.288004737200591
13.59293847075924 -1.0516489134747864 2.311282697957821
13.72442785522052 -0.8201288553399518 2.339537750455337
13.739847341440598 -0.492327877803928 2.372797968594047
13.66803984786588 -0.21755474101548836 2.404296986270426
13.767718485240101 0.06577799269220115 2.426845832213952
13.659105156923232 0.3633345962407495 2.447871330619563
13.709782686368717 0.6253394051024568 2.4773145391298526
13.709930790231667 0.9308011540535887 2.497758578205659
13.68118638062968 1.205535827075736 2.517001835043791
13.578463907859383 1.4782685373664224 2.5337740042280723
13.604740671317373 1.7546803518933771 2.560725426176106
18.999256098535483 -1.9390331947021942 3.186693936407541
19.0628501026119 -1.5647540941201632 3.2289410582788456
19.074223634912855 -1.1746362661623204 3.2598627886714304
19.119530340120935 -0.7316128307810211 3.3100880850422745
19.134977372070534 -0.358219049950147 3.343661820848409
19.14449942498579 0.05848127476709494 3.379121674110959
19.109838857786603 0.47155460804291227 3.4033655674334806
19.079470360593955 0.8635282654172581 3.4539101410787953
19.026930295066652 1.2649522506103081 3.480382637212744
19.000248852338363 1.6333340817509707 3.518151708110953
31.659963687415058 -1.9324823060967895 5.425799734618284
31.711019878621002 -1.305684935069624 5.482310052927329
31.7553228213974 -0.6127084812239089 5.551800683807098
31.763257180175287 0.0616977308003232 5.607894890643181
31.763695504667055 0.7215117505896094 5.66346619003102
31.7412229428584 1.4251569094086995 5.712847224191839
