# .PCD v0.7 - Point Cloud Data file format
VERSION 0.7
FIELDS x y z
SIZE 4 4 4
TYPE F F F
COUNT 1 1 1
WIDTH 338
HEIGHT 1
VIEWPOINT 0 0 0 1 0 0 0
POINTS 338
DATA ascii
3.327751439337409 -1.946426574778074 0.5801052506796929
3.2796521061668904 -1.8861061092583247 0.583425840987774
3.355307806932348 -1.8115613628515916 0.6041988836551868
3.4473037227810552 -1.7227812482513358 0.6032309167104483
3.4329427316942898 -1.664177280043833 0.6088279074458935
3.516227119659393 -1.5872543538471746 0.6098817054430461
3.5103947071749304 -1.515521007656518 0.6138142119165826
3.5292400954054544 -1.4670300730987769 0.6347551127663026
3.567466483520119 -1.3857592678127713 0.624169500221681
3.6087129176997377 -1.2787410907626795 0.6297513306678674
3.65962169480115 -1.2173267191745452 0.6428076164137401
3.6744148254389963 -1.1263626262427655 0.6474586738738014
3.6265137102171336 -1.03310914120776 0.6420263887322583
3.66264083879006 -0.96090452115262 0.6573629551013469
3.729979697284745 -0.895468788979684 0.6655420556504694
3.7110576355693263 -0.8230349870604586 0.6571190570098218
3.726391283425933 -0.7584865527341988 0.6581861797296209
3.7024555658028935 -0.6907157906443182 0.6660885321408937
3.8097960970932894 -0.5929671445642825 0.6632852712350088
3.8141949091497866 -0.5287562380320859 0.6579274040060122
3.8376121079223333 -0.4076523217917677 0.6713844790150179
3.848278578597859 -0.2770963269463555 0.6782077625649371
3.8116886448086045 -0.2649950027325877 0.6687014096559938
3.827668060573355 -0.15907797083606667 0.6607856948739653
3.878897176784087 -0.09577236667382033 0.6712829789284624
3.8445635142644847 -0.03855440693828487 0.6764308223293337
3.874207924766553 0.04879688648493361 0.6868532793721064
3.8257538463018226 0.13032870901129984 0.6821933654422049
3.815916135315561 0.20178397296895612 0.688614604115719
3.8544425806292146 0.27307915268424254 0.695444272236722
3.789486627662364 0.3786738556155193 0.7066585760654234
3.8211137174795886 0.45053742170404365 0.7142513377759449
3.794029819524753 0.49952547549265014 0.7185756924436161
3.778595078620996 0.6169709903316265 0.7135814453242403
3.7672675871057577 0.7200076479198989 0.7256740422790001
3.811996152026635 0.7903900491523734 0.7316632662236129
3.7134783020377444 0.8364352678413429 0.7287323927773621
3.7289347456535897 0.9142949553750342 0.7270172224548203
3.7185612631409186 0.9865662504445492 0.732031709283771
3.715042425224884 1.0642830914406474 0.7526312491669955
3.6466786690493818 1.16927657295123 0.7413098115150057
3.5754573601528774 1.2547134064272685 0.7413165466072599
3.651703784890192 1.3062332062604227 0.7526288687048881
3.5368022679258515 1.4022096100436987 0.7615576529143001
3.4766450739671937 1.4824157884843503 0.7451168990239181
3.3937862203369997 1.5493043978073004 0.7598587302171853
3.4862196781172603 1.5972222528411626 0.7445056477250274
3.430715398554776 1.6365840922375128 0.7581182814296153
3.3758881435515384 1.7376966969365608 0.7562029875694682
3.290344326905764 1.817919456511308 0.7511731481736558
3.3146696499874073 1.8747077643870418 0.7482927111343223
3.681719497443111 -1.9371036484160986 0.6547117599097066
3.77471870426985 -1.8781736193675067 0.6524739092877057
3.8190369199619187 -1.7711111089140916 0.6666724984824566
3.789181550512049 -1.7375958083894134 0.6770721651784238
3.8196867100070686 -1.639201477503213 0.6770988695170881
3.8283656621894346 -1.5512673867190252 0.6833123883682121
3.8682750105190857 -1.4777989093265518 0.6862447457037514
3.9270774450118227 -1.3683190867860933 0.6969594414823008
3.940496319928583 -1.3238891968545734 0.7043449036953702
4.009975466451994 -1.1967755683873216 0.7109287945767432
4.001970207805846 -1.1457865918366794 0.7103624247614263
3.987026440833867 -1.0827464018581172 0.7135680971481365
4.088341333294529 -0.9445388725588342 0.7175542217294499
4.071865594007775 -0.898402625703432 0.7205050091663564
4.056354527057376 -0.7840869132802414 0.7278417016616844
4.066605844852581 -0.6722044513441878 0.7309374555942001
4.143266619480301 -0.6109230795222557 0.7329954455046322
4.165430526727076 -0.5305570679102535 0.7356490321580625
4.087294171019354 -0.4815579724908173 0.731956872636536
4.145766283855952 -0.3476718897514845 0.7291057960399697
4.159615059642035 -0.2738998668189434 0.7401373144415122
4.178548621306086 -0.16956346353577295 0.7391918536388196
4.199018609286837 -0.04875005841995562 0.7386024034105703
4.201928898557906 0.012992274172640532 0.7358037727234517
4.153665012055997 0.07578785570416714 0.7482833549879427
4.128239172068892 0.14292868294508074 0.7462668068481061
4.082551387797724 0.24623424771264943 0.7621146739015288
4.1595036345861525 0.3765683331625678 0.769636221323272
4.192940050256779 0.39746760583259694 0.773901376058204
4.092640951685526 0.4862978944358842 0.7743782875262861
4.145718689159355 0.5817619683713475 0.7852442160013191
4.085034428786127 0.7047046426717622 0.7808753669527216
4.102230835262268 0.8052900272149378 0.7959517908269671
4.116577822292179 0.8519658668640951 0.7941067894357117
4.083783053153643 0.9362938998907429 0.8132547082897325
4.053121621398535 1.037091304803125 0.7967397239742098
3.986873674198773 1.1109235098642845 0.7980871213084458
4.024198812684025 1.2099402063197584 0.8094443153087485
3.9682614759703987 1.266268526075883 0.8101195861365978
3.929910408690006 1.3635610737038428 0.8192752142311106
3.9304574905965066 1.4271060657480312 0.813879268996164
3.8134032304584515 1.5332348762950503 0.8242316446192154
3.8432947657297207 1.5944293939645542 0.8172819506767436
3.824949583545318 1.6718580250427155 0.8223341141355653
3.84705267849321 1.7816640689978815 0.8158833426098346
3.7261461866737458 1.8456366669111577 0.8338283823865307
3.7101494065546037 1.9412284953671148 0.8204568372535604
4.123910343513943 -1.9319450791782429 0.7330195867806084
4.155818996322613 -1.835606358034691 0.7390601076049379
4.198617949101961 -1.7735310753273679 0.7489382373222263
4.271033546045071 -1.6992154676292064 0.7475056290683381
4.296804733920713 -1.5660944457429051 0.7622893318159838
4.34769042373514 -1.521055952791605 0.7681123239222329
4.409834126871751 -1.414731590512246 0.7763459463538064
4.430103079595255 -1.355916228958674 0.7693170405680451
4.453458697484021 -1.2291442232243581 0.7813067992852413
4.45820351567125 -1.1094191340044843 0.7876496897286318
4.44254834059891 -1.0365881653030977 0.7939991174718
4.5174077029261595 -0.9810586422065071 0.7834005970102818
4.458124495440905 -0.8607370679507252 0.796362855355144
4.558983388128412 -0.771059046574549 0.8027376470818786
4.51794410473778 -0.6572268881571908 0.801945259598781
4.604050234283856 -0.5565654245182984 0.7987391754312584
4.541562967602364 -0.47712553208831837 0.7944349118445141
4.561507894240288 -0.36795609866993295 0.8065284701248061
4.52299246384414 -0.2758149974744418 0.8092420069846042
4.523951549645105 -0.13456417160321935 0.8057420798195898
4.632441548914412 -0.07111135240127091 0.8067350287646232
4.564188767643687 -0.006262279284205672 0.8047075421789486
4.622792383856272 0.11225656985410189 0.8146443160342596
4.618160655868534 0.19619315984302466 0.8139992470190792
4.567789723160398 0.26592117460207876 0.8259054830699426
4.62282439180944 0.4030752404234668 0.8437312610726821
4.5062333018564225 0.47211630370947516 0.8442302659827111
4.555580361836134 0.5669899719034466 0.8408889727802769
4.532976312993772 0.6674259902416536 0.8612509816864548
4.55749863436724 0.7691289726499223 0.8657621492763282
4.474953678774091 0.8391481254314944 0.8760135192469867
4.495413627778241 0.9573755353849109 0.8803918007953023
4.475852744448866 1.0324635038005192 0.8729710177907363
4.424258857485389 1.1326776153283307 0.8788697116710883
4.442815161057976 1.2425552512790154 0.8850006565001606
4.440831636006577 1.2986307486377924 0.8922136087223729
4.320147268237922 1.4199205577227465 0.8936718306389242
4.3341426424299865 1.4973503322553274 0.8957213897523996
4.298648909693405 1.6104466730864284 0.8949945347492205
4.302197380646179 1.7127156862366075 0.9003850887452898
4.251006485255766 1.8011701682842172 0.896191986913276
4.162435410650692 1.851035665593482 0.9000618651602169
4.7185268412767725 -1.951465200820386 0.8332564490455764
4.733813997819029 -1.8613549171518036 0.8389963632622889
4.80103107148817 -1.736193140631737 0.8386667437687227
4.817772256653056 -1.6544567042495164 0.8448693513867794
4.829246104705278 -1.541109146801556 0.849026789016068
4.869582456324952 -1.418842395389871 0.8624559385537633
4.894970138206065 -1.3343113254943857 0.8658040346574634
4.958049025819505 -1.223126498373504 0.859323269827685
4.901471221853219 -1.1356339566533664 0.869759581456965
4.987871496663485 -1.0428622175975502 0.8715121711300511
4.9907146737688795 -0.9172004665356316 0.8905093503341431
4.967889887285581 -0.8252843250390433 0.8796967826637202
5.036675798481419 -0.7203135990061417 0.8892478483611269
5.022008427699251 -0.6435464078098122 0.8957297320214429
5.104551277689987 -0.5078235579872963 0.8765590887450483
5.044303762978238 -0.412923369038884 0.9002936897543183
5.094694162004939 -0.2809017834207388 0.8893322425578738
5.101105952761505 -0.17221837299973491 0.9067722587374436
5.048813373340022 -0.10505170173832672 0.8939794645593806
5.043512611356833 0.012099959163598585 0.8930165825982086
5.0499954781204215 0.13599202209515596 0.9074094147903119
5.048238862538983 0.2834398659862103 0.9184976723714704
4.983640420255499 0.345018642126173 0.9203513378992667
5.026831467656887 0.44251497624581815 0.939007051405463
5.032765033899986 0.5611260478015972 0.9342874850793284
5.073644292181547 0.6738203999392369 0.9520271227505468
5.053032283716918 0.7584952599539583 0.9567869994002699
4.913655397759871 0.8917334978187369 0.9545856025999518
4.941546164903233 0.9712517296083908 0.9621488656891257
4.965714057068641 1.0856584071312263 0.9741656854374351
4.943684786414883 1.171655989854935 0.9770388243391607
4.9422126261366 1.2714149546599305 0.9763272423685441
4.874004149180218 1.3545622017758396 0.981691454844579
4.889916168736758 1.5041717445551406 0.9921557415453907
4.786034517343777 1.5606861906041432 0.9947254871234994
4.758674415205205 1.6806551618621088 0.9885792705236711
4.735627501694547 1.764830612162411 0.9948147103213405
4.748614745908879 1.8756948557366733 0.9885200247012378
5.3299967454465165 -1.9579446906966957 0.945534435045599
5.413515126769748 -1.840309538331161 0.9466652979537221
5.409648638642445 -1.7128860244632442 0.942815243281797
5.460980349304718 -1.5836060049115326 0.9650949335945653
5.5072911844527255 -1.481972835537289 0.96078742712336
5.507808787192254 -1.3678623541430437 0.9740819475512349
5.5303155505344375 -1.2741514318833491 0.9758108115447555
5.534860735879483 -1.1114083972486815 0.9824028913241799
5.537545776525755 -1.0288839595404244 0.9844931637720016
5.585258474501239 -0.9205193076895037 0.9804332006953536
5.607206280011998 -0.7854452354601063 0.9934859574718475
5.668427584320327 -0.694752538361376 0.9997233020894424
5.70233794770795 -0.572764067230424 1.000450957575976
5.666963302272123 -0.4192314872845896 1.0052425815187163
5.661401654792445 -0.3253143436581719 0.9983879380019046
5.645921399942065 -0.18036104893175292 1.0016592160070312
5.645858465035428 -0.09267131027947356 1.005818747863342
5.67713311674455 0.05318635378453408 1.0028642419208784
5.703200635521209 0.11808567592031796 1.0130671081251148
5.699425741889663 0.29844639423411495 1.02501468374516
5.654443128324163 0.4130358752609842 1.0471541276149687
5.669335252537775 0.5066199763888818 1.0442544947485188
5.665699216310332 0.6506594260692741 1.0536444072708167
5.598705524707657 0.7659689154576967 1.0645569558430101
5.641142519157704 0.8880567709524585 1.0583412920753603
5.6171288419291745 0.9725347758756575 1.0710288356513051
5.54629873895138 1.1179471298028703 1.0815272356322185
5.59836666451047 1.2026894750411954 1.0740118953096345
5.506757855836793 1.3323750510300942 1.0890638164821964
5.521162453221786 1.4919083174790353 1.0931558262091485
5.522459882754171 1.5768692858492424 1.1040101872501562
5.388615547774226 1.6849702039130507 1.100718559048808
5.434490117501226 1.8072722316773595 1.1134992349298523
5.376464839079537 1.906946272968476 1.1036183925902743
6.172272005952247 -1.931382781163176 1.0876290026322841
6.219711194387008 -1.7889398483911771 1.0928453813587047
6.224088840715408 -1.6997002604811193 1.0965714340841088
6.249790947311667 -1.5738982755466806 1.102105895118729
6.26888146790283 -1.4105365898835154 1.107970304338652
6.315277178143402 -1.2877956867579612 1.1055187148266437
6.349536420871516 -1.145486479110677 1.130235746112359
6.308719845847419 -1.021827751152232 1.1190088784330074
6.40151599966761 -0.9100860071948714 1.1289571402634704
6.389212052008641 -0.7704626966809001 1.1391286427276897
6.425587348747508 -0.6434659113484044 1.11994967078153
6.38434870623979 -0.5013430029931996 1.1324694466267784
6.437455070182025 -0.31162794097528984 1.1292532603281369
6.376200976371314 -0.1762903906419167 1.1324322134661318
6.405471369300685 -0.1083978053962494 1.1332700741583253
6.4770262242233825 0.04874636970676227 1.1380055059743328
6.389644011572316 0.18051535725144258 1.1438776425161803
6.449241976783352 0.3329430574509188 1.1643585787124182
6.420871747732501 0.436065643048009 1.1706768075132226
6.391728588526305 0.5820216432160195 1.1781954433577748
6.379139509389003 0.7544406196817285 1.1878520533482488
6.372237045748682 0.8783306662440185 1.197785141990189
6.364174057561332 0.986038278285512 1.2065969787601374
6.367023973596135 1.132493431839893 1.2118720866513946
6.3442628077775804 1.2649417008603407 1.2210173944290126
6.29226386632385 1.3980115160474884 1.227613665847688
6.249533314312598 1.51730342987089 1.2385351033013627
6.286591441960386 1.6498468973329865 1.2431174088121342
6.213606453779908 1.7992412019377595 1.2488632456355644
6.173449978276082 1.909328769854394 1.2530187610296113
7.201510176956963 -1.9186580867073213 1.2575987247919385
7.192949722701539 -1.8097996973467143 1.2736340626007896
7.217958729542948 -1.61965832235889 1.2756577054961817
7.260336917988977 -1.5167408486522334 1.286932587146202
7.3034716572572 -1.341545134052686 1.2933165160291058
7.275245783852442 -1.1777300758674223 1.2847328491792427
7.36753471416569 -1.0554616110948445 1.2977112804511637
7.4071304073592525 -0.8980239266533765 1.3073374811766856
7.354809555443462 -0.6971681790610512 1.3069554538791859
7.368149003423547 -0.5519008045700888 1.3139953197831362
7.404034221713629 -0.41000973988356104 1.311969654933547
7.421870979361937 -0.25459783471708525 1.3176549079148583
7.522449670207718 -0.0958634690941252 1.3083125459743354
7.463978874450906 0.05490552119490148 1.3199322502143518
7.461780425693648 0.22644310285201952 1.3159289088116521
7.411243833633538 0.37066297798798586 1.3345205755960396
7.416582647091542 0.5207990896852144 1.3540775769570141
7.426296201071623 0.6849857925843379 1.3748650458526033
7.347480209118837 0.8135677252358863 1.3716044509960625
7.380655971194994 0.9774584412435694 1.3941945441698413
7.367212033066856 1.1404004482468242 1.3962501613854974
7.328587765889452 1.2648802910801724 1.4056888487692012
7.273351420610161 1.4603180595633773 1.401458318566168
7.237870069506494 1.6158743431235314 1.4181243785520048
7.246774934585687 1.7511295252955539 1.42746869682376
7.223914173937147 1.8955713302369683 1.4283044419725452
8.545703836260422 -1.9068833899520568 1.5073515455491586
8.692339321321167 -1.7374991366397237 1.5093051818538321
8.59564609728073 -1.5770160318069377 1.514818170459251
8.635716904665825 -1.3757166901205213 1.5348046366163661
8.615470810540211 -1.2159689833186635 1.5344847982165741
8.727369889368154 -1.018408453804274 1.5415239390079012
8.762161816686223 -0.8308348762313436 1.5344385768252211
8.728779652649203 -0.6819983458001367 1.543217454976275
8.839721604130846 -0.4848495796027221 1.530894291103089
8.776118290562298 -0.3381830987010541 1.546331770506164
8.762615769288121 -0.09692925814254821 1.546872040839019
8.796213610998663 0.05254822755656241 1.552320976397985
8.794252228168917 0.25574921186276917 1.5659295152293926
8.774107082400233 0.4140907636084194 1.586705646663523
8.760375973378142 0.610850423000971 1.5991831366962836
8.746514326198378 0.8134646650055847 1.6087664670428419
8.74508779349614 0.9743151185531289 1.6172895570446273
8.65373948569612 1.1528376520310217 1.6427853770597374
8.684015533450442 1.32880676771399 1.6443630369412725
8.67025162043294 1.4955682965210813 1.6483225891190707
8.606347895863944 1.6960534377712464 1.6680902584837036
8.56390636117691 1.874079249345082 1.6696438636643673
10.55904638410443 -1.9457999392321241 1.8536059124668585
10.57788457715444 -1.697319887275378 1.8629976911425628
10.672805549001666 -1.495012690955388 1.871826963007668
10.587271557526744 -1.281085088559141 1.865914782377225
10.64674296002315 -1.0658102548878312 1.8871385116812116
10.675061162437974 -0.7971688711587458 1.884098541064367
10.660909572780367 -0.6174496495750259 1.886839066742733
10.653270475460955 -0.3713158433173762 1.8946460089699895
10.660474140184853 -0.14056331846110448 1.886632510430587
10.726637070041097 0.054153435576548274 1.8872272981573486
10.685366003778578 0.29015701331667937 1.910257936493843
10.687177873535722 0.5061403957818484 1.9176748594228468
10.63608790980866 0.744915394523182 1.9511522632843488
10.646815769594847 0.9439512716929535 1.9659154034536848
10.650236871333904 1.1698066378042324 1.9854005864207398
10.650233196250438 1.4231257959594676 1.9927974863380795
10.548528108912459 1.5973502750607353 2.005964142072768
10.606547685069826 1.8490812823357892 2.0219711444420807
13.646252709215297 -1.9637130126371474 2.4000407271832165
13.603611548392891 -1.6296457458994118 2.401629348216337
13.622581243085211 -1.3594707875888457 2.4033050040774993
13.667246339870397 -1.081123835426971 2.4018735501362505
13.713398542786287 -0.8151028905411631 2.4106763165984204
13.668080205079347 -0.4902652658876526 2.414575392827778
13.768373169739444 -0.22952676971901897 2.4155754028747864
13.675513904381605 0.05404899795052991 2.4171675491845526
13.709639333733596 0.3511414518742929 2.450500746821556
13.708988083184204 0.6538686068613173 2.4663728690940134
13.688815527410178 0.9473252672764351 2.484161790636011
13.68758708682934 1.214546325309246 2.5242660886407937
13.652097565588043 1.4640403107025544 2.5356805691008044
13.61121180042379 1.759162647715921 2.5583262818959756
19.050043172289346 -1.9263731368773829 3.358831897502839
19.088866605109768 -1.5072420034453464 3.365459102545725
19.102395871942882 -1.1413577340634036 3.3690011278000536
19.12344133166115 -0.7374448839289365 3.3741046386668105
19.18346215037451 -0.3769319458260371 3.3792801613758416
19.13213699978936 0.045942048029707964 3.375034509069343
19.103846406464886 0.4977851096778022 3.420000910750061
19.04222145734651 0.8604157740010486 3.4509276082215057
19.06547916293147 1.2754339069706293 3.479097238123044
19.08334714332124 1.6482956754566367 3.501780599630352
31.67716131728176 -1.9364982409788856 5.588789167672332
31.723485236915867 -1.2957878670943166 5.594528140671363
31.735070333557722 -0.5930359662788934 5.596319056305927
31.73464556686054 0.057506765916784205 5.603227415528061
31.737073341426065 0.743410292931159 5.656173295071356
31.71054566218254 1.367530296167081 5.7183523270899865
