# .PCD v0.7 - Point Cloud Data file format
VERSION 0.7
FIELDS x y z
SIZE 4 4 4
TYPE F F F
COUNT 1 1 1
WIDTH 401
HEIGHT 1
VIEWPOINT 0 0 0 1 0 0 0
POINTS 401
DATA ascii
4.914884027287701 -3.90504955233574 0.0
5.087376330017379 -3.757658403459762 0.0
5.166838973728788 -3.796524676292827 0.0
5.207344335441481 -3.5739121792973902 0.0
5.31649114206076 -3.5044712255439636 0.0
5.377787204032996 -3.3606373846748556 0.0
5.3657188234896696 -3.2591974566898885 0.0
5.53950623357849 -3.1543291718065563 0.0
5.609405484984594 -3.007258869208581 0.0
5.62237558483824 -2.8783194283376536 0.0
5.639079172275239 -2.8455998172907555 0.0
5.712099163686435 -2.7213663423652417 0.0
5.766131416941402 -2.561709045568981 0.0
5.918435931756395 -2.418670136404789 0.0
5.898018964990139 -2.361512833790385 0.0
6.005715447914567 -2.176395950434014 0.0
5.915684329522871 -2.074634963105645 0.0
6.127299381896941 -1.9266546031703526 0.0
6.078781176701658 -1.8784185752904274 0.0
6.139190498355053 -1.6665683343286202 0.0
6.183969071062667 -1.541703319896472 0.0
6.18675392872999 -1.452426658372979 0.0
6.1262629555550525 -1.2994160507489807 0.0
6.21726221480938 -1.1861600404238877 0.0
6.228721823032154 -0.9431500593635798 0.0
6.3178261255539425 -0.9581319228419518 0.0
6.2390845883895025 -0.7467853211378136 0.0
6.309843200725374 -0.6964523829405769 0.0
6.187912652103765 -0.48236987610836696 0.0
6.264277160502791 -0.3926404175640874 0.0
6.343266764774087 -0.20673323833477594 0.0
6.371890584929587 -0.0653465072817013 0.0
6.356818428343691 -0.03808670524336951 0.0
6.361850167276254 0.11480559505833213 0.0
6.376875934980249 0.34506264051177826 0.0
6.3499800906980965 0.40396233426530537 0.0
6.224570637634991 0.5732373316285438 0.0
6.252548976905266 0.7110550385812019 0.0
6.2556215030333195 0.7949438288294417 0.0
6.2820934849621874 0.9655410818797979 0.0
6.29636656306279 1.0555516838956982 0.0
6.281628712038221 1.2364885523820794 0.0
6.149900824627531 1.364556965272248 0.0
6.185798842372621 1.4808243130635752 0.0
6.089796728798647 1.64326587416852 0.0
6.1501670724868465 1.767048756529997 0.0
6.047769846769901 1.8676766339873638 0.0
6.038311935433085 1.929090426869967 0.0
5.907717725117062 2.103166910939494 0.0
5.956169120745693 2.1767119292117867 0.0
5.948002325213093 2.3254460703746456 0.0
5.814223036137497 2.4696958682409353 0.0
5.781676387080146 2.6032686311419004 0.0
5.7089800263752295 2.6929805915183507 0.0
5.671055684022508 2.819053682453141 0.0
5.697009040609996 2.9856824225427006 0.0
5.4585083400448 3.0610822320760067 0.0
5.473184289604855 3.2337347539103165 0.0
5.413569451113108 3.2176446141857813 0.0
5.301215377406524 3.4222181923671853 0.0
5.298266612048269 3.5826535337105168 0.0
5.2444712099756 3.6636623435277142 0.0
5.208358031034588 3.751033847408736 0.0
5.029526224675379 3.839031237002877 0.0
6.206786370317243 -3.971390721835231 0.0
6.281059246962838 -3.78922114604914 0.0
6.359613155423286 -3.646138398870263 0.0
6.416183392543518 -3.521813526188111 0.0
6.5488206282884684 -3.4544333364008653 0.0
6.73212989858382 -3.2731064611050984 0.0
6.60672717289309 -3.0777063908727738 0.0
6.717420471131349 -2.976112396343586 0.0
6.685039571067793 -2.861155295879277 0.0
6.845218861830551 -2.7054976020504196 0.0
6.902497737598086 -2.5666586611082214 0.0
6.997525731762048 -2.4079152309749747 0.0
7.042790949663516 -2.2721866290218027 0.0
7.01805435498992 -2.1122852973502004 0.0
7.086853828664507 -2.0201071778876343 0.0
7.16095857827589 -1.7880344954983702 0.0
7.123498188129495 -1.6814425023812194 0.0
7.2571695284260525 -1.5295592107003688 0.0
7.237610598439099 -1.4296481881590248 0.0
7.29366100340184 -1.2527534036748367 0.0
7.297901994416816 -1.0913986878077795 0.0
7.235084642249314 -0.8968564487519071 0.0
7.358913341989386 -0.7465305879948132 0.0
7.407383686930049 -0.550424643367715 0.0
7.335716198462247 -0.40238891189127823 0.0
7.336616068411751 -0.33682901250141606 0.0
7.306557940326539 -0.07426959185905946 0.0
7.3120457572039195 -0.028604023912030423 0.0
7.364288770953478 0.21683517612538158 0.0
7.331963464462243 0.3071305510057118 0.0
7.3677825724174655 0.4764759307094838 0.0
7.36879225909163 0.6163576057727794 0.0
7.2789762998830065 0.7705787247563081 0.0
7.306048120439909 0.9804030595735255 0.0
7.2606667694659865 1.0934674879890034 0.0
7.228128818868361 1.2467571368167443 0.0
7.212195665800081 1.401580292423989 0.0
7.201694358245742 1.5340889833681643 0.0
7.228084711366004 1.7511569930840762 0.0
7.16780760763152 1.8406914144920443 0.0
7.056028698354103 1.9852969664373423 0.0
7.059437294372684 2.095259794473007 0.0
7.015409460734777 2.2879793222294005 0.0
6.975473501469134 2.3777071190676677 0.0
6.891286945745314 2.5986487868346346 0.0
6.906169152683118 2.675474208517427 0.0
6.804077635736298 2.8895743827989864 0.0
6.753825695698215 3.0148491134828266 0.0
6.598091175888079 3.129020364267238 0.0
6.55891803967816 3.2444693636759334 0.0
6.531638360521905 3.427928277642055 0.0
6.492273408343908 3.5426120654912285 0.0
6.362561011656042 3.709503216310434 0.0
6.302772716869457 3.8410744087579283 0.0
7.7980803883368495 -3.968166758415453 0.0
7.854235415583005 -3.7862920991631177 0.0
7.909262152034087 -3.5854019396288614 0.0
8.090438830113108 -3.371451661817754 0.0
8.019606653003619 -3.2426553626147947 0.0
8.201911226814287 -3.087121311889953 0.0
8.23058768291665 -2.9478592462710878 0.0
8.221371628823713 -2.6810815204110194 0.0
8.30191018175556 -2.5681009378735764 0.0
8.415559367593431 -2.399315522088059 0.0
8.428102878953485 -2.2371412690103663 0.0
8.563528147185188 -2.0268448579984932 0.0
8.57061816914643 -1.8743920258677822 0.0
8.577967381185685 -1.7352050651717679 0.0
8.685977068423142 -1.4561699707375748 0.0
8.722366329167567 -1.3949294735280016 0.0
8.70666466656794 -1.1529723345644072 0.0
8.72262630068787 -0.9691777629208597 0.0
8.694403493849967 -0.7826105177260113 0.0
8.755746544204158 -0.595976995178865 0.0
8.683783982799685 -0.4498459373602018 0.0
8.785059516354632 -0.28517375566481706 0.0
8.695421762773348 -0.04780573592728447 0.0
8.779344077752326 0.10180028050179785 0.0
8.682562154457816 0.34432430558860766 0.0
8.801632484904118 0.5203921986939043 0.0
8.712056045436958 0.6483774631480048 0.0
8.639497318101004 0.8249307945378125 0.0
8.711101994662714 1.0543089520036342 0.0
8.643103821678254 1.1672544649419976 0.0
8.566482279247445 1.4290597660878162 0.0
8.607743862860563 1.6095760559207064 0.0
8.565627192857786 1.765739007626948 0.0
8.54732357057042 1.974127082282377 0.0
8.524021144487516 2.163643638206383 0.0
8.413579538903555 2.334984768541002 0.0
8.475704077045878 2.4722901160881 0.0
8.338560249414055 2.6165147470360557 0.0
8.269260335657393 2.849343323544264 0.0
8.226034660782494 3.0377156423862353 0.0
8.158320797875227 3.186160267556351 0.0
8.125465389871565 3.364179147185862 0.0
7.97996840397125 3.497548952569901 0.0
7.897964009388043 3.6917120128255823 0.0
7.857414076411751 3.851191556184011 0.0
9.599378514487784 -3.962493344274825 0.0
9.542001232590346 -3.7896526014741556 0.0
9.622297313421017 -3.5463747212591983 0.0
9.8126225108053 -3.2683885029390636 0.0
9.778305540934966 -3.1318323941480797 0.0
9.780538032707696 -2.8959410471980593 0.0
9.892042638774805 -2.672553605478454 0.0
10.021836036712681 -2.4822099791356718 0.0
10.030705867500815 -2.312064795802607 0.003533690435875466
10.132784646734825 -2.025035319745188 0.015814268733063484
10.058292688872845 -1.869973752053749 0.026912596653279705
10.17633596911614 -1.6829735145326479 0.03682380610309584
10.129365406887203 -1.4583037396236063 0.04554354969847731
10.203849960584268 -1.2872245580564174 0.053068002671693995
10.22373336257387 -0.997972604255949 0.05939386454898547
10.196775108980988 -0.7509873673931307 0.06451836059826169
10.236891216164981 -0.5588079306817341 0.0684392430461883
10.215053393493253 -0.319793861010252 0.07115479206413794
10.192396202963684 -0.2190040668358748 0.07266381652256086
10.254183613743901 0.06482596089589733 0.0729656545134567
10.232920997047701 0.1928518073199244 0.07206017364070628
10.29472499272591 0.4603579491165767 0.06994777107814756
10.245496657622995 0.7155259749624114 0.06662937339535883
10.238768120550617 0.9960066179105336 0.062106436151238904
10.247486517259397 1.1258568161623428 0.056380943255546885
10.252755242953091 1.3710183298855745 0.04945540609869622
10.138236334048365 1.5720449524946203 0.041332862450175686
10.090055834597472 1.7331762928455403 0.032016875126080986
10.032845271018422 1.9912739406861495 0.021511530426349425
10.021212690033668 2.1863847236584686 0.009821436342371233
10.06061723223937 2.4192964560718404 0.0
9.906732970296641 2.5602280618017192 0.0
9.896267888414933 2.8311430856643236 0.0
9.812900926656374 3.008530134179846 0.0
9.764751362393852 3.2679818158212313 0.0
9.661985310743491 3.402890919228808 0.0
9.61270775775306 3.654240057575579 0.0
9.519221703908503 3.81531962747441 0.0
10.452833251112699 -3.942997842657439 0.1330076384590958
10.480674990728769 -3.7515752996950047 0.15445018111666922
10.673296318757506 -3.4538297481354645 0.17464966310413982
10.694993279928424 -3.313504699035595 0.19359722426110826
10.759346190949417 -3.0041499145717565 0.21128455356102938
10.809561754485745 -2.8108388414052006 0.22770389275669875
10.876657283341377 -2.5939216722906457 0.24284803978328276
11.010481888566222 -2.4293038175010824 0.2567103519173754
10.994155441828916 -2.1738430719413446 0.26928474869072216
10.990246362923108 -1.823554547413224 0.2805657145573101
11.134216469670413 -1.6634413728428805 0.29054830131266995
11.110302129130684 -1.444765839354919 0.2992281302643242
11.1167349790572 -1.194579250958538 0.30660139415242343
11.204978676663547 -0.9859391045659905 0.3126648588197373
11.210390424050368 -0.7510047596560899 0.31741586463026333
11.160291272463933 -0.4970603131570145 0.3208523276358312
11.238857458383922 -0.2360254978167856 0.32297274049019087
11.206260711289517 -0.05733069994678001 0.3237761731101832
11.174402268012159 0.23971278026263176 0.323262273083708
11.213235125528596 0.45666432902518417 0.3214312658243011
11.269722250293384 0.6980301090358129 0.3182839544722613
11.183388234407653 0.9075727610909459 0.3138217195423687
11.153302153431223 1.1512077694679073 0.30804651831834096
11.090424141932282 1.394643057621389 0.30096088399430715
11.125176412319684 1.6335847115540563 0.29256792456366343
11.120528658728244 1.8469550443163205 0.2828713214558074
11.000731604409742 2.129060349777165 0.2718753279213372
10.972445956160556 2.344789624519366 0.2595847671664379
10.882664699190716 2.549477403163567 0.2460050302372636
10.838229571052922 2.7616321745140744 0.2311420736552459
10.785548491746773 3.0231300656086155 0.2150024168043669
10.740217368537508 3.2027926954844883 0.19759313907154188
10.683158785702643 3.4123117604390414 0.1789218767413673
10.586683176479891 3.684195794277737 0.15899681964659107
10.49879348218524 3.855961762714907 0.13782670757578563
11.628185624582732 -3.9288559561582144 0.44947743254056866
11.832630487234896 -3.6545058468312144 0.47085056814258786
11.823083415641278 -3.371839718315377 0.4908418594076237
11.85688587353724 -3.1287497587026216 0.5094425374946095
12.076756153037195 -2.9585270471197074 0.5266444435313781
12.056416695884122 -2.6993333471878165 0.5424400321934123
12.094262462259136 -2.439788607276044 0.5568223750134778
12.155415613993732 -2.1675418091724303 0.5697851634206711
12.18789806003694 -1.989380056639212 0.5813227115075735
12.206973687879332 -1.608891836926242 0.5914299585242745
12.195945917083234 -1.4477437967422935 0.6001024710981843
12.263122483845772 -1.1357130243272815 0.6073364451786596
12.238156188189485 -0.8762647586624689 0.6131287077055833
12.253727740255998 -0.687584954907851 0.6174767180011749
12.325377159602986 -0.3639408807842486 0.6203785688844157
12.355137893192984 -0.14425639409079286 0.6218329875076017
12.291937692611658 0.11257861721883192 0.6218393359146557
12.251005871457354 0.33581701807793457 0.6203976113209555
12.377214886812679 0.663194334554081 0.6175084461145585
12.296097784441015 0.928915353662845 0.6131731075788116
12.251681146160415 1.1835925991066043 0.6073934973364803
12.265747525975357 1.4505625942812783 0.6001721505156361
12.131585808698153 1.6475233458187275 0.5915122346376613
12.160711081110161 1.8722536004839727 0.5814175482278738
12.176733509941196 2.1771847452600834 0.5698925191493646
12.025234757352557 2.4788393810397022 0.5569422026607934
12.066864318731074 2.6701926683645216 0.5425722791989843
11.900009960593893 2.913985166902613 0.5267890518872977
11.860707168810155 3.1946206969906794 0.5095994437708735
11.85730242990037 3.4005923700240674 0.49101099477995375
11.736383168419701 3.700132697501984 0.47103185842261863
11.701978297348427 3.908876076940322 0.44967079820839234
13.106970371968437 -3.9977866552201404 0.8288367211164094
13.11402438319772 -3.6512720285464333 0.850126656957473
13.243308854825266 -3.4012793964798864 0.8698683854338072
13.292566861459905 -3.0829750038500756 0.8880532471708327
13.354620174403864 -2.7945819898166184 0.9046732656871749
13.487850361072143 -2.619458828020374 0.9197211508934178
13.485092092643026 -2.2280159769991283 0.9331903022897703
13.509860591848396 -1.9937099206182742 0.9450748118612722
13.59427607163236 -1.6828374616605621 0.955369466669238
13.627555895401615 -1.4558996002833178 0.9640697511378277
13.540206639978296 -1.1333866853994852 0.9711718490347263
13.676689455423759 -0.8782735687295091 0.9766726451450688
13.621942480456196 -0.543968004537629 0.9805697266378792
13.66608212203803 -0.2523392570752522 0.9828613841244148
13.758013791077651 -0.005713220995142026 0.9835466124079619
13.647113669092699 0.3019676554111322 0.9826251109247481
13.75897443028113 0.6525557974373166 0.9800972838757809
13.55721121159796 0.8582842314587024 0.9759642400495478
13.676119796043853 1.1735136312944896 0.9702277923356705
13.477011622611078 1.4069956386256208 0.9628904569297072
13.517690440699885 1.7092626955370018 0.9539554522294682
13.546520096738714 1.9904580068124824 0.9434266974233201
13.47483198202679 2.32596543372564 0.931308810771099
13.429654395844329 2.5884066580229614 0.9176071075783909
13.296583056751947 2.8393502822673247 0.9023275978650609
13.356525756239963 3.1624875578390443 0.8854769837290631
13.259070970530743 3.450135054515618 0.8670626564066741
13.17874197254093 3.6875490558369464 0.8470926930304576
14.85032450265418 -3.9003015515997923 1.2949415003342595
14.86692482429084 -3.6273449694823787 1.316129211694787
15.011895714110329 -3.293800078744537 1.3355643115685487
15.079017124151438 -3.0227939927181713 1.353238275078405
15.126253855864334 -2.6415416807665957 1.3691433498398298
15.224505752814881 -2.338574116807215 1.383272559361364
15.156763055768673 -2.0481874492203382 1.3956197061047384
15.232108084078002 -1.6851702856810566 1.4061793742033133
15.278446126764024 -1.41541238987486 1.4149469318376608
15.377368324750316 -1.1104271346412131 1.4219185332672324
15.307059810441908 -0.7061852365677429 1.4270911205172259
15.390487856392673 -0.4310971781624258 1.4304624247199202
15.392787362768459 -0.09843810226044164 1.4320309671098672
15.384411233440941 0.2733940776310726 1.431796059672535
15.342079184030585 0.5450422372101836 1.4297578054460893
15.337032550350283 0.8634638659611306 1.4259170984761984
15.262854201175859 1.1919508883572627 1.420275623423876
15.128019036720048 1.4653072612696285 1.4128358548265332
15.263067388952107 1.7574995080580837 1.403601056012562
15.214716064138544 2.062559826045589 1.3925752776699365
15.101487290668992 2.468936132729673 1.3797633560694422
15.094662269369861 2.7448838742484836 1.3651709109433314
15.140222548056974 3.0909244462061363 1.3488043430203223
15.00362028767426 3.3662979773404986 1.3306708312180244
14.864793714892249 3.6983265078325918 1.310778329494033
17.08802826230268 -3.894418974727572 1.8852186196928207
17.107347257029993 -3.5727657120745455 1.906276873526652
17.148932353347632 -3.161889236448016 1.9253236576046768
17.282016995220506 -2.8450795590967424 1.942350617377894
17.33358000627217 -2.4216797920645967 1.9573502842590034
17.356406728756202 -2.1686758486621076 1.9703160788983656
17.407043970837904 -1.7665954116162383 1.9812423140699282
17.502148351282663 -1.3380714815528594 1.9901241971658292
17.389942152351168 -0.9854565726493061 1.9969578322985957
17.48166232765106 -0.6329445878849839 2.001740222010003
17.565124997101215 -0.3538085155644154 2.004469268585866
17.495587776232068 0.10715888072612824 2.005143774976158
17.501137035627 0.3567383461023726 2.0037634453200845
17.434638790924147 0.7904052061446702 2.0003288850758554
17.48537268702573 1.1707182156324145 1.9948416007551033
17.3919291125566 1.5589870306636078 1.9873039992620904
17.3700975798019 1.948179907930433 1.9777193868379508
17.41910661851979 2.2772640413461573 1.9660919676104676
17.273566089902147 2.607895721061127 1.952426841750005
17.21239557286958 2.90778018776383 1.9367300032324015
17.187830219594748 3.2594597042031768 1.9190083372098155
17.10668173907324 3.7140070952256745 1.8992696169906718
19.927367079725858 -3.9686176329623195 2.6619830065781334
19.97865033460573 -3.521299213132354 2.6828709031457696
20.049559998580946 -3.0865420866567 2.7014066901495344
20.128322277251037 -2.6892014144840792 2.7175822371806344
20.184040740664585 -2.268380691538023 2.731390449109536
20.215343276597284 -1.7706931632994731 2.742825269198121
20.31471416574595 -1.389956802426199 2.751881681756373
20.323378585186965 -0.9290783579783382 2.758555714342428
20.314877355483553 -0.5684051258487849 2.7628444395050145
20.305564595942013 -0.17412784961381134 2.7647459760675326
20.274141383385928 0.29819964005639393 2.764259489953199
20.330862477009088 0.7097918447828182 2.761385194550903
20.26913272589864 1.161915638325321 2.7561243506216035
20.15849286384759 1.5946069353685142 2.7484792657453214
20.184600115889662 1.9854543421354207 2.738453293308955
20.13128163268794 2.436974553476784 2.7260508310353764
20.11422567273676 2.8327457277607038 2.711277319054444
19.98167948320462 3.328795585036667 2.6941392375167825
19.986965312822573 3.6652220578159747 2.6746441037513726
23.95639362656596 -3.966545276135202 3.7373328649536206
24.005514813726354 -3.41470548058962 3.7579849195269928
23.989252826536056 -2.894846955281991 3.7758132839960576
24.235200993513917 -2.4100528067242113 3.7908101382509276
24.27417415792475 -1.9173642275613731 3.802968904175675
24.30745690813922 -1.4549157400126336 3.812284248533715
24.232354693825112 -0.9326892064320631 3.818752085307136
24.282585713274642 -0.3388795208785276 3.8223695774889657
24.300135574607197 0.1164504484929889 3.823135138327574
24.270078645200577 0.6153047854362125 3.8210484320226747
24.225126110191226 1.1422330215159302 3.8161103738726196
24.17024818052798 1.5967088475892612 3.8083231298729183
24.151199486142417 2.160720393482945 3.7976901157661587
24.23292596410873 2.702105196365013 3.7842159955437538
24.122664950854215 3.202892653198716 3.7679066794001552
24.020522221939736 3.645603065268449 3.748769321140454
29.896403778822634 -3.899855644619325 5.335384919720247
29.92537975357082 -3.2994353528320293 5.3556864950699525
30.09024732635053 -2.6854993305788137 5.372463575599786
30.069763805428988 -2.0771731205302535 5.385708802327741
30.072093762645196 -1.398227751684648 5.395416365459617
30.11839811581291 -0.7756957353979977 5.401582006937384
30.096578442387415 -0.08487239642293944 5.404203022306916
30.18768851971021 0.48104996795840926 5.403278261904243
30.130492896978577 1.0462398729490883 5.3988081313598455
30.202893089008235 1.7245246213858545 5.3907945914207165
30.112148189447907 2.3414908167914117 5.379241157090324
29.989180480847292 2.9759679211414163 5.36415289608681
29.973890703064953 3.609693509846193 5.345536426620123
39.77758244559311 -3.9135006955329303 7.978977011771136
39.89080329829292 -3.1218210329289975 7.998698803689285
39.83331513670546 -2.257253999702785 8.013736788236631
39.933434617285606 -1.4574544418379634 8.024084369256139
39.95792744457371 -0.6147605971005371 8.029737007956784
39.966515194356056 0.20021026144866189 8.030692224904413
39.943216288181894 1.1062720496235035 8.026949601109298
39.85854222296032 1.9156913245721299 8.018510778209933
39.92422847346649 2.644024894605262 8.005379457752948
39.86340302742838 3.6165857522817846 7.987561399569487
