# .PCD v0.7 - Point Cloud Data file format
VERSION 0.7
FIELDS x y z
SIZE 4 4 4
TYPE F F F
COUNT 1 1 1
WIDTH 379
HEIGHT 1
VIEWPOINT 0 0 0 1 0 0 0
POINTS 379
DATA ascii
2.75171539628608 -1.5446899067765794 0.7437637084363621
2.814658470676341 -1.4476775105961404 0.7503242357068144
2.8194711758755724 -1.4093505718496686 0.739964222301666
2.8891854399397614 -1.3284638587031374 0.7637395323022487
2.9495570398072166 -1.3044949656008604 0.7703945237923128
2.9361974995995483 -1.2445335122735128 0.7879588692918306
2.935773535814754 -1.1486294460780766 0.7833222286390761
2.992537434401687 -1.0993776921178733 0.8131562526909003
3.015330330143916 -1.0309249725560867 0.801421250605262
3.0336519808938647 -0.9711938925520959 0.7976359726516505
3.0391849844510097 -0.9123974696823044 0.8211136537237973
2.9905527615129763 -0.8389822986204614 0.8301948827030742
3.104264664860608 -0.7781122482556532 0.8213162294183789
3.0745962477299185 -0.7218933280647619 0.8231239456727615
3.052281314099858 -0.6327202417791772 0.8350268118277672
3.116874130643152 -0.6229177414936853 0.8425838464458667
3.154836878476271 -0.5149588647474137 0.8348926173499979
3.161274570027124 -0.4706444897003042 0.8462437017372197
3.14937423517757 -0.37432692241542 0.8497652761217555
3.1156397421351523 -0.33964124077728713 0.8464387899045211
3.203989048383643 -0.2547396654527013 0.850328317916173
3.1934449992692677 -0.21448148185675467 0.8542574170728153
3.157730227862683 -0.16416994541453622 0.8517013262575984
3.1934614692346646 -0.060773502900699806 0.8594332004576826
3.193008973076659 0.0071449874304572 0.8433928619226035
3.152206938318638 0.07299212297883187 0.8417704758984058
3.20554939170017 0.11617849156145843 0.8608054568214543
3.1458898347207174 0.1901642187162161 0.8583325696350618
3.156281366128622 0.26418135051389563 0.8557729206111675
3.1826277764937676 0.33580043988968566 0.8459304225551527
3.1489859511888127 0.39443957245936595 0.8420679463714168
3.116218742407858 0.444526388173723 0.8376309286547319
3.121587300473055 0.4973169747625976 0.8370071682915701
3.1195406416559965 0.5923787678383249 0.8454767057727147
3.1311386902726883 0.6435800682429405 0.8329868970349948
3.038302397654632 0.70960241847638 0.8229926827820011
3.1047684026466658 0.7928515005441894 0.8195554612133871
3.0380455637369566 0.8530223328335717 0.8299528738201438
3.053888676996521 0.9078998108026761 0.8214050443016586
2.9479169141483483 0.9440929020742146 0.7992245841542827
2.9911357163423054 1.0333041862561279 0.7971895358187298
2.9855280299736195 1.1285023077003744 0.7878408085949964
2.9088365008888917 1.1853200443340755 0.7857341806410809
2.9599461143959953 1.195749942147028 0.7814449396861644
2.881661514986239 1.2873769731331783 0.7630703919634984
2.8619883237031383 1.3338409650561085 0.7817586996022732
2.8278500892822436 1.4435719761109838 0.752261132239271
2.7614526805391755 1.5008027411403642 0.7522778039998058
3.0834766474181228 -1.5402953274002293 0.8153494498796134
3.0878119612231396 -1.476458078923252 0.8150109793087886
3.121011947971415 -1.4037478454941748 0.8274508321822471
3.1410247337563084 -1.3470614961060843 0.8445449754187055
3.1820767233958107 -1.2548291950944317 0.8275910386515533
3.190331853838999 -1.2014743938930559 0.8464583313783938
3.181004680866216 -1.1296838993021807 0.8546521230472929
3.2660002021581938 -1.051384479914456 0.8566633369601235
3.2978107864801633 -1.0037780269680543 0.8770829582690796
3.2724019225249172 -0.9277586855328622 0.8801200312569114
3.305373894516706 -0.8791252557317865 0.870343601263157
3.335868541714755 -0.7799164889039477 0.8883215896622114
3.357026450668838 -0.7275025248438718 0.8934271898721251
3.348594392713733 -0.6565556788703341 0.9012635134059511
3.366589142402541 -0.5842018912955612 0.905434714674177
3.3673489555652374 -0.5240885625990445 0.8977194553516971
3.385012890760203 -0.4460647961424379 0.8960080533537321
3.3564730341135283 -0.33932501097694967 0.9001632579594556
3.382245961719861 -0.2755305094709466 0.9171745086461778
3.3848096343594634 -0.23147055211917583 0.906626362723682
3.3830459947327203 -0.14387182626411832 0.9123339514292889
3.4297397200621615 -0.08061682405113475 0.9039132361258095
3.406522498696889 0.009512295671655081 0.912254022178227
3.454164295170649 0.07982673541232628 0.9132761401070839
3.4088718669767264 0.14364079457736925 0.9118141034401457
3.392237480302953 0.18966572399171275 0.9131001741132853
3.389957747818871 0.25281766039619413 0.892383731538054
3.3502708584906142 0.34170495308299864 0.9101850288954196
3.4404363546389782 0.4216161742518953 0.9078297282895803
3.3471674303727683 0.48327217957264473 0.8971898040692067
3.3747309107578407 0.5619620737230667 0.9082883533255036
3.3580026185195204 0.6192551403310441 0.9055801465358441
3.3774128786164477 0.7101256780122319 0.8922068903780175
3.345059082134883 0.7711088603376591 0.8949634945784108
3.2793678245960782 0.8469412284933583 0.8945954479785544
3.2467369976138216 0.8943425315572224 0.8775973397919569
3.2464440153107583 0.9813321782929543 0.8730606702638222
3.2655083483988827 1.0573286169486427 0.8652461482477772
3.259838366205035 1.102445993560675 0.8593604831940803
3.18325710740154 1.1814960721668373 0.8573119391395537
3.1750820187901305 1.241963682049967 0.8394234168681071
3.165299226781674 1.3020539615158269 0.8303923617576192
3.1190298202524285 1.3964995379039973 0.8380637509355606
3.1007740670546564 1.4455791906900564 0.824390351017045
3.1084950727427656 1.5084291012033344 0.8177355629327178
3.3473875436884923 -1.5317515959170676 0.8990819707546762
3.379827718863774 -1.4448551411305726 0.9118359762967202
3.409139754335262 -1.3908130993442367 0.9084481755651609
3.4151011929567288 -1.3156152354023305 0.9314774921768852
3.447856010513008 -1.249288645159797 0.9261913266761348
3.50444600351928 -1.1553959167788759 0.925336376044028
3.4807805841538277 -1.117952347309389 0.938634840842247
3.5441041584604838 -1.0319192155501622 0.9448614234597064
3.535861909201672 -0.9678680465199448 0.9564304838721918
3.5955302281751713 -0.8468836933828519 0.9555371167369128
3.5798445616451984 -0.7945211411687605 0.9740106075877657
3.5703482090700858 -0.7255343850012512 0.9603790170095957
3.650393312470918 -0.6447166756256768 0.9793563576934857
3.6230415755151175 -0.5698830804882421 0.9711212994984316
3.6423984254880217 -0.4911783292646779 0.9751798820198222
3.663008755284487 -0.41450820956699846 0.9856562484773506
3.6611787576438277 -0.3480852146025448 0.9733077730280515
3.6937000088819683 -0.23413789215692812 0.9742347016118589
3.6397878786836215 -0.18607439339170329 0.9808129327816987
3.6742674476245836 -0.12926465274701335 0.9750957830889978
3.6731150112322095 -0.031559980770121496 0.991878628866744
3.6676484008000245 0.06231746952856067 0.9868502742248446
3.630094731427979 0.12324222987565991 0.9893714881983166
3.7087871136164945 0.2041369097232385 0.9877967006341439
3.6452135549075195 0.3046791082827151 0.9872179527639003
3.6746149269239345 0.3379614085921383 0.9712225688987675
3.6663136339303652 0.4386469123308542 0.9892463610409554
3.659238932052357 0.5114010497461254 0.9769716503404343
3.630320887398001 0.5952257950485735 0.9609875306721759
3.5876700734830353 0.6251584652053723 0.9748174165131261
3.5670306985553797 0.7444243311503599 0.9589449251323677
3.5576232104672982 0.7800362026943956 0.9596495734760991
3.588906862032546 0.8767458978985496 0.9524522084133608
3.563645006966419 0.9482896754705543 0.950852592698745
3.540440280899954 1.0440582725878182 0.9303440762525227
3.49443312190847 1.0972507044339928 0.9336776697818855
3.478983949819999 1.1497313457506122 0.9306972532221975
3.442256240472288 1.248905826842901 0.9267688037651284
3.399230034980501 1.3200913290896645 0.9154720594507605
3.393276661575054 1.3791583727978156 0.8982636784185536
3.388274383073161 1.45227867962185 0.9047301454774569
3.6708291839903517 -1.5073910308129002 0.9869072183831394
3.688627475707286 -1.431283046922059 1.0101889438511495
3.7330869166476193 -1.3914726285287726 1.0033822168244468
3.7545275054020353 -1.2793123002017133 1.0104016732224395
3.7949790526664753 -1.2139666904964552 1.0150673777059926
3.822671349543289 -1.1217260129008113 1.0311143051951284
3.866439924598929 -1.021801383843633 1.0367314014996634
3.8817056295347103 -1.0018138538449124 1.030917075326048
3.9348222629227947 -0.8901705929011597 1.0320818007694863
3.8975516415899722 -0.819069331111185 1.0372822618097841
3.909931534027714 -0.727666177125746 1.0582833810368837
3.955194906547885 -0.6304867611759025 1.0503183479585836
3.9551010683490917 -0.5580768883081448 1.0555581170896886
3.985510684399408 -0.5144610281244121 1.0576497726296012
3.9655284287040313 -0.3899132497586423 1.061349171135766
4.016274064203444 -0.29174696206190226 1.0611867053292683
3.9637546988345522 -0.2438107157705121 1.0754841795025223
3.9602987173968724 -0.1471630464452915 1.0618921920615783
3.9989253636575293 -0.08287580935838422 1.0687574053724465
3.973876213430829 0.0236740015066463 1.0707328353675374
4.0393097392411805 0.09866733618958128 1.059147970585384
3.9653575588181096 0.18681982386127624 1.0631639391107097
3.961787192666383 0.2757893138627143 1.0695024577981525
3.977251022790331 0.36154852769450896 1.0587933102070668
3.9818265342218933 0.4408633085804265 1.065507376739751
3.9502427906116155 0.5023985099491798 1.064275467366357
3.976222605491172 0.5831330474232621 1.0606782892102868
3.9277045594389 0.6784878398688796 1.0425827188121914
3.91041255427164 0.7744672837916097 1.0460631972725647
3.8663850770173087 0.8439309588954018 1.0400598144910183
3.8927026699201535 0.9067165843310989 1.034626372746906
3.861771913500956 1.0267397285389468 1.038435957806157
3.8207684542570006 1.0840954281755135 1.040685043953688
3.792401709108013 1.1924362005101168 1.0123558839912876
3.8025284966561723 1.2613939943190267 1.0286267658898278
3.7891373122384193 1.3412381684650405 1.0061624322910643
3.7238533878425124 1.3948441927319997 1.0089425550967304
3.7164385548764822 1.5025395514878903 0.9820596856036978
4.026117479922874 -1.536977358706498 1.0957322922257289
4.093037566297134 -1.4277739009729657 1.0935014966647862
4.143316022587066 -1.3422454374886998 1.1082746996644686
4.143849687077246 -1.252571646717598 1.1214506377089006
4.164050793251738 -1.1774176249807984 1.1258219258166313
4.242071258857561 -1.1019952436007678 1.1272831768915785
4.206764832145714 -0.9955173783426714 1.144846437732791
4.262587450051243 -0.9183068169210534 1.129590669476716
4.281587529158692 -0.833464428829187 1.1385243342293327
4.314569303055028 -0.7546771232011636 1.15077514330675
4.31705604407543 -0.6587417770460129 1.1568910880827903
4.280881975598976 -0.5563342148570876 1.157207258148081
4.327000744187971 -0.4599543057729214 1.1789410425208093
4.336241877555656 -0.40986066039528046 1.1677560979706583
4.368761806709327 -0.29364571165927217 1.1684657759835415
4.373358509410801 -0.22022110657910546 1.1661886479653414
4.373873544294581 -0.11030046398443068 1.1610005472878497
4.3584285636801825 -0.02416074306096662 1.1594162319781967
4.282451348011508 0.07798881972922435 1.1535998748839449
4.321072487909272 0.16619265701276748 1.172303148084887
4.276647484861086 0.2539865362113815 1.1719514742719133
4.332266223926558 0.3483708293249163 1.1645027717568766
4.35072502748858 0.4728365576727938 1.151617589245991
4.301104610472718 0.518057460275363 1.154717458907556
4.273013607624586 0.6103080953961427 1.1551041400690731
4.301359073335494 0.730622682469459 1.1475609757584802
4.304945947306292 0.7743502728960235 1.1413973356947353
4.235826977883111 0.9029425393154638 1.1415712750997082
4.208397103735289 1.004289905000591 1.1358745799136012
4.26342229704192 1.078138079112259 1.135373496524858
4.166225387490387 1.1881511874343924 1.1218314913680854
4.098278149365062 1.2376558467714314 1.1241089354359326
4.075386041654209 1.32469718662028 1.1119577469902877
4.137912744230127 1.4224031523922362 1.1110123714758036
4.056099712288712 1.5204858806520865 1.093798152215373
4.542427840176975 -1.5200134035696333 1.222128724761484
4.5299391950336645 -1.4258442544539731 1.219481299070463
4.5891957143183 -1.3691711357524858 1.226221458620351
4.657262352908226 -1.2575286683018199 1.2357278576572712
4.660816807486057 -1.1346766790026663 1.2479779006063656
4.674971371414444 -1.0463959061853514 1.2570761332580012
4.66395195433427 -0.9306728558889199 1.2572863897126747
4.688951260198905 -0.8677151008812483 1.2598246165510112
4.736722375242583 -0.7694801193177738 1.2533178153075706
4.724175362840042 -0.6405471390096874 1.2663136656590332
4.7290027286249705 -0.5739655040519406 1.259370610867463
4.778693968267726 -0.4196594568283939 1.2839367596375115
4.759160032750495 -0.3518468222580625 1.2809803626203733
4.80470956325005 -0.2717107726591054 1.281658198236398
4.784796226363539 -0.12241263738666883 1.2798582671295322
4.77048942037505 -0.0552459642880156 1.2771910084002738
4.7722874891361755 0.050440057047272946 1.2914776063564812
4.811982671277409 0.15605500240971246 1.276520722856345
4.766362249120703 0.23717184132924204 1.2725215508218288
4.739607283209677 0.34363686662085974 1.2741040074870609
4.768454271933378 0.4524171202775902 1.2877870939517893
4.768227355626018 0.5587341448811568 1.2729521038712575
4.767746817673387 0.6529672141030771 1.2636459312859676
4.723627196534665 0.7787705148222174 1.2612833135203783
4.766044820424007 0.864674903084648 1.2632889634204827
4.633593120956655 0.9374259286922992 1.2685747201667308
4.694624678127687 1.0270055828607607 1.2454204483753073
4.685723694724408 1.1524604569549592 1.2474343010714233
4.618353134571852 1.2419763991286912 1.2338454918441453
4.583017551193057 1.3399555127670473 1.2396335568258512
4.531914275423311 1.4331201589025349 1.2178556744581641
4.532010520717461 1.5234198092547053 1.2156914886363206
5.0839765953099265 -1.5105510750228435 1.3550308680063912
5.0678887941574935 -1.4197230949823383 1.3690733966366946
5.150784103957855 -1.2898566427688274 1.3795484513143825
5.168291535257594 -1.2130683245341234 1.3801565891340768
5.181981483802136 -1.1269241767011107 1.3902826695801551
5.199535172455338 -1.010306389398362 1.399707718458923
5.233271490852219 -0.8669087392496362 1.402788983050666
5.274109331760626 -0.786417220402947 1.405873641947654
5.24897037665276 -0.6617889406964668 1.4049414342623996
5.307162448146879 -0.5501744650789869 1.4208470308545733
5.23456343374439 -0.451561731564936 1.4103131943011684
5.289114276099779 -0.3191410796086074 1.4193441028921543
5.245753047387445 -0.20035060392370646 1.4223937413849448
5.267877499938099 -0.08667551943181906 1.4196153497223818
5.305591484569385 0.014040433560140408 1.4191073463852535
5.262358935853272 0.1089109643357849 1.4266435396328887
5.3060499628761235 0.2137950295327832 1.4153967152712494
5.290122041284482 0.34781918289113023 1.4290766128209107
5.262037525900361 0.4468578637074907 1.433518210116852
5.282952391043903 0.5483447650583999 1.4145797796968407
5.228575664583658 0.6710404015119904 1.4036155244562305
5.208478389627866 0.7943330417794637 1.4208356668709494
5.220307783738134 0.9066546673957341 1.4094186130216542
5.234827171731519 0.9822216952107735 1.400136941737161
5.249324495846827 1.0954559512524928 1.3882667584506572
5.133517502864253 1.2386510879991086 1.3916818583949273
5.1380795512486195 1.327905561188413 1.3738896898960602
5.060224024700066 1.4392234964197694 1.3704269414359174
5.746735733552549 -1.5283324305529467 1.5390147201915652
5.794394932407654 -1.4140979852783477 1.5391700630011842
5.74767234865606 -1.3000128451363062 1.5547794211417965
5.84092130404695 -1.1741369184694919 1.566609149264175
5.825841758976744 -1.0350980610871898 1.5854774847177633
5.901170667695026 -0.9229135015921178 1.5881201982488933
5.922443383876361 -0.8035050032687205 1.5791970918037765
5.900724018387857 -0.6611587618882243 1.5788866290739887
5.912433198307252 -0.5502201149350364 1.591515619525945
5.911709926990195 -0.41000578101135804 1.5785472619811438
5.960022199911945 -0.2881354727742611 1.606975377391051
5.974687645231851 -0.16076907416797606 1.5974692727454953
5.9442388691218095 -0.044062788262084575 1.5954565994435732
5.939804529979177 0.08871567787088934 1.5921736473601222
5.93802441261749 0.20849222467367115 1.611908831127096
5.943133075669171 0.3228032678472049 1.5758256075997077
5.945750282849935 0.4507899288609868 1.5856201921799975
5.94531421434951 0.5737193931451025 1.5838144812620505
5.9167419549394396 0.7030606001257156 1.578297002845542
5.895031521734208 0.8176588840744381 1.5738175223451143
5.89063789784948 0.9583995664961612 1.5845759868218987
5.911100045147813 1.0700060834940506 1.5779648700744937
5.83736969700331 1.2048558185070464 1.5563512576182725
5.789016229811348 1.295128100790736 1.5603978021049578
5.75777255712799 1.4206197121499156 1.5470394615196947
6.610086505981408 -1.5151440042264206 1.7618503726019887
6.6351375070735745 -1.392227824032377 1.778325819865811
6.669532854226098 -1.2506673451431745 1.7839467803015032
6.732562019939998 -1.097405441686419 1.7970493586783756
6.739586265441464 -0.9723728914131426 1.791767848837915
6.761604644350888 -0.8054842303417781 1.8147165685035016
6.777743415349631 -0.6963407249710042 1.8148494605458068
6.7949273249528295 -0.5321033718137013 1.8071429691163923
6.761698663163541 -0.4204446145783363 1.8173323516108395
6.726700103720827 -0.26808900359366855 1.8252231116955409
6.804699076784072 -0.11768230594786952 1.8167328496472304
6.763558375872162 0.04024007153981543 1.821957338677146
6.7820043823292675 0.164307935014927 1.8138767706016508
6.799800530376519 0.3082061970110206 1.8092821852444645
6.8323620359259705 0.44361775994730945 1.822420734295286
6.74276219515075 0.5677761537736518 1.8053264690710409
6.757110333338187 0.7266371942462349 1.8027216215018922
6.757893612986705 0.895096221133002 1.8032066697658404
6.724158946627524 1.0105928855791182 1.7877696688819367
6.683413423878013 1.1573661665173163 1.804293336941198
6.740955128918081 1.3022386610153238 1.7681010669004458
6.654263870394643 1.4353569737769392 1.7711838347589002
7.7395369229592985 -1.551957805342219 2.085203047417712
7.751860748237183 -1.3545207029367743 2.0745471579565473
7.758473238708865 -1.2281440921724966 2.0841872120997476
7.815901756346137 -1.0589491688991852 2.0848808132999674
7.86804174285499 -0.8616324548398966 2.09679959432176
7.897972484000035 -0.7020139495941604 2.1025947476857607
7.86210911602369 -0.5481768760475567 2.1031743149936313
7.916832607077466 -0.38784553468701277 2.1072989730605878
7.866254339248606 -0.2103226399041105 2.1106375499509356
7.92459817952145 -0.03337548028343522 2.116979445629398
7.9074032030215875 0.12748740762417463 2.0981594278219307
7.846109673918008 0.2839444722236944 2.120734483845431
7.873841773686171 0.4640672965046319 2.108485443234984
7.8337662869431135 0.6518388526957015 2.1017256104894604
7.8107032808022545 0.7932116499689652 2.105990086347411
7.870505093761131 0.9316647621936364 2.099852701711038
7.795113814250148 1.077529613112736 2.08058408064589
7.776619965524341 1.2826675079759717 2.093998727969829
7.763874630422572 1.4302209526991174 2.0757824413946593
9.261641600670584 -1.5048965194987713 2.486396178656952
9.32580047849067 -1.3338118748487466 2.4974383959107302
9.388617077694825 -1.1521018244992707 2.508690557316253
9.416534752153472 -0.9217503536937662 2.506705774281435
9.399387401880055 -0.7420453966945822 2.515467877851254
9.42204789886693 -0.5534798532163473 2.519040765906674
9.399182963846426 -0.34565897365174825 2.524476810843109
9.419600681027278 -0.1614826067885676 2.52632350256313
9.404307607264663 0.03426719392868061 2.5083510723162186
9.441961129291588 0.26091771990806406 2.514560423501385
9.403724741506394 0.4408362955377392 2.526266291461954
9.37980950816666 0.636436460000425 2.5101800807526122
9.382629961207627 0.8684009060254315 2.50664675015096
9.40967096968076 1.0317868055253219 2.499071652091936
9.366313737804017 1.2210666106123127 2.5136494602487898
9.303959187520661 1.4116274009411163 2.4896285988413767
11.621985588191045 -1.5179182030223624 3.1108689819822732
11.644562867157049 -1.2703900750268984 3.117915516709829
11.636485297933138 -1.0611298068731625 3.1247977295242015
11.688934494598223 -0.8002757250229704 3.1435705764842
11.701775736921423 -0.5547273245186667 3.1335598926255384
11.715426017715576 -0.3044210101522823 3.1392043155707454
11.739772259974133 -0.06265242489125832 3.1412915868307536
11.72287393877249 0.1732507075378672 3.1425815036466394
11.710246324063268 0.43279541601380206 3.1398845403268925
11.680099090121157 0.6862358234853498 3.132584833653426
11.683492977464619 0.9356221329133807 3.135375657721594
11.603832946391488 1.1515359064055792 3.1257865878060023
11.649935878783246 1.4269500115506009 3.1250813649323472
15.419462655681166 -1.5524507525040356 4.139680503683062
15.476137018443067 -1.1853341642373227 4.157398270246392
15.519500632866245 -0.8605033796277258 4.158515924803441
15.540906339945288 -0.5415673684987103 4.152036158604953
15.535072485368227 -0.22800429129401656 4.163257874210277
15.48659754765922 0.10518465635685678 4.159353933955102
15.505501322730204 0.41586805203383004 4.160018044657457
15.502890429591952 0.7262151737604055 4.145228261652826
15.453320708453273 1.078753398073959 4.1407379742796735
15.454679229520695 1.4248049079485456 4.1464049182207825
23.038572437340147 -1.5417451694066067 6.18590263244215
23.055523296675197 -1.0551702214507157 6.176286473032816
23.1071789764825 -0.5698784004776125 6.182995836661541
23.135690131253412 -0.06720802020537858 6.191134235541887
23.083110576098186 0.41250979221684003 6.1892821769408775
23.106397846420908 0.8956538081216027 6.188349174776446
23.048409957973583 1.3923979062391714 6.175881097580425
