# .PCD v0.7 - Point Cloud Data file format
VERSION 0.7
FIELDS x y z
SIZE 4 4 4
TYPE F F F
COUNT 1 1 1
WIDTH 401
HEIGHT 1
VIEWPOINT 0 0 0 1 0 0 0
POINTS 401
DATA ascii
4.9798575469305195 -3.9310973210765683 0
5.061092072577887 -3.8259448987649427 0
5.140106635971566 -3.7191142905720573 0
5.216866578712595 -3.6106523559334502 0
5.291338231353147 -3.500606669838355 0
5.363488928165064 -3.3890255019617364 0
5.4332870214681215 -3.2759577954916166 0
5.500701895511748 -3.1614531456609773 0
5.5657039799041055 -3.0455617779936475 0
5.628264762582641 -2.9283345262737313 0
5.688356802320417 -2.8098228102482308 0
5.7459537407627455 -2.690078613072643 0
5.8010303139888295 -2.5691544585094324 0
5.853562363593352 -2.4471033878893707 0
5.903526847283159 -2.3239789368458577 0
5.950901848984359 -2.1998351118324213 0
5.9956665884554505 -2.0747263664337057 0
6.037801430402212 -1.9487075774803244 0
6.0772878930903955 -1.8218340209780723 0
6.114108656452426 -1.694161347862042 0
6.148247569684557 -1.5657455595862837 0
6.179689658331141 -1.436642983559716 0
6.20842113085293 -1.3069102484390644 0
6.234429384676488 -1.17660425928966 0
6.25770301172211 -1.0457821726249965 0
6.278231803407772 -0.9145013713359958 0
6.2960067551269585 -0.7828194395209742 0
6.311020070198377 -0.6507941372273544 0
6.323265163285843 -0.5184833751161992 0
6.332736663286824 -0.3859451890606823 0
6.339430415688384 -0.2532377146896357 0
6.3433434843894885 -0.12041916188734138 0
6.3444741529888775 0.012452210739247195 0
6.342821925537933 0.1453181214146561 0
6.338387526758225 0.27812029075920375 0
6.331172901723613 0.4108004673522629 0
6.321181215007083 0.5433004532832588 0
6.30841684929266 0.6755621296791969 0
6.292885403453011 0.8075274821975206 0
6.274593690093599 0.9391386264731195 0
6.253549732564452 1.0703378335083256 0
6.229762761440851 1.2010675549947587 0
6.203243210474498 1.331270448555917 0
6.174002712016924 1.4608894028994392 0
6.1420540919171644 1.5898675628680035 0
6.107411363895903 1.7181483543778797 0
6.0700897233986035 1.8456755092341914 0
6.030105540930281 1.9723930898120072 0
5.987476354874854 2.0982455135924303 0
5.942220863802235 2.223177577542929 0
5.894358918266517 2.347134482331212 0
5.843911512098863 2.470061856362024 0
5.7909007731989215 2.5919057796263276 0
5.735349953828795 2.7126128073524005 0
5.67728342041383 2.8321299934484774 0
5.6167266428547 2.950404913726656 0
5.553706183355463 3.06738568889788 0
5.488249684772501 3.183021007327908 0
5.420385858489449 3.2972601475442946 0
5.3501444718234366 3.4100530004845013 0
5.277556334968153 3.5213500914753895 0
5.202653287479486 3.6311026019344483 0
5.12546818430963 3.7392623907832356 0
5.046034881395831 3.8457820155636475 0
6.226374422028928 -3.9310973210765687 0
6.307335565926703 -3.7998398189749425 0
6.385530103985873 -3.6669155815428325 0
6.4609237374976916 -3.532382913743965 0
6.533483396322717 -3.396300826052783 0
6.6031772533964705 -3.2587290085705023 0
6.669974738689835 -3.1197278048430612 0
6.733846552618084 -2.9793581853924485 0
6.794764678892646 -2.8376817209730136 0
6.852702396809972 -2.694760555564502 0
6.9076342929721255 -2.550657379113651 0
6.959536272433934 -2.405435400036306 0
7.0083855692718275 -2.2591583174921217 0
7.054160756569731 -2.111890293444005 0
7.096841755817609 -1.9636959245145569 0
7.136409845718573 -1.8146402136518596 0
7.172847670400653 -1.6647885416170345 0
7.206139247029663 -1.5142066383060804 0
7.236269972819797 -1.362960553918568 0
7.2632266314388945 -1.2111166299858396 0
7.286997398805557 -1.0587414702714204 0
7.307571848275588 -0.9059019115564072 0
7.324940955215457 -0.7526649943226473 0
7.339097100960807 -0.5990979333465669 0
7.350034076158248 -0.44526808821654895 0
7.357747083488988 -0.2912429337867912 0
7.362232739773095 -0.13709003058060562 0
7.363489077453471 0.0171230048438605 0
7.361515545458885 0.17132852955248148 0
7.356313009445698 0.3254589039055799 0
7.347883751418149 0.479446521226908 0
7.336231468727401 0.6332238374581703 0
7.32136127244975 0.7867234007860799 0
7.3032796851447515 0.9398778812289533 0
7.281994637994197 1.0926201001698652 0
7.257515467323246 1.2448830598234106 0
7.229852910505197 1.3965999726231475 0
7.199019101251728 1.5477042905168314 0
7.165027564290644 1.6981297341565895 0
7.127893209433487 1.8478103219712338 0
7.087632325035599 1.9966803991079596 0
7.044262570851512 2.144674666230732 0
6.997802970288793 2.291728208162736 0
6.9482739020637565 2.4377765223603136 0
6.895697091262675 2.582755547205917 0
6.840095599812445 2.7266016901076466 0
6.781493816364865 2.8692518553930664 0
6.719917445598959 3.0106434719850506 0
6.6553934969460675 3.150714520847525 0
6.587950272742602 3.2894035621890665 0
6.5176173558157195 3.426649762412428 0
6.444425596507309 3.562392920798162 0
6.368407099142012 3.6965734959106467 0
6.28959520794521 3.8291326317149292 0
7.812456333278119 -3.9310973210765683 0
7.893069623202509 -3.766623425620164 0
7.9702207519217705 -3.600497364641215 0
8.043875878400982 -3.432792006520583 0
8.114002695067342 -3.263580912371055 0
8.180570441981349 -3.0929383037710028 0
8.243549920329121 -2.92093903020835 0
8.302913505229967 -2.747658536249111 0
8.35863515785356 -2.5731728284449087 0
8.410690436841444 -2.3975584419939935 0
8.45905650902781 -2.220892407170372 0
8.503712159454885 -2.0432522155357855 0
8.54463780067851 -1.864715785949348 0
8.581815481359836 -1.68536143038976 0
8.615228894139383 -1.5052678196050868 0
8.644863382789985 -1.3245139486051682 0
8.67070594864549 -1.143179102011796 0
8.692745256302405 -0.9613428192818593 0
8.71097163859199 -0.7790848598187079 0
8.725377100820586 -0.5964851679870449 0
8.735955324276349 -0.41362383804668335 0
8.742701669000862 -0.230581079020559 0
8.745613175824362 -0.04743717951240032 0
8.744688567663726 0.13572752751050596 0
8.739928250082652 0.31883269995400937 0
8.731334311113763 0.5017980218377942 0
8.718910520342721 0.6845432385246204 0
8.702662327254773 0.866988191922664 0
8.682596858844407 1.0490528556455037 0
8.658722916489246 1.2306573701143362 0
8.631050972089444 1.4117220775870292 0
8.599593163474381 1.5921675570986416 0
8.564363289078607 1.7719146592980815 0
8.52537680188939 1.9508845411656264 0
8.482650802668525 2.128998700596078 0
8.43620403245138 2.306179010832383 0
8.386056864326452 2.4823477547346093 0
8.33223129449906 2.6574276588692487 0
8.27475093264308 2.831341927403902 0
8.213640991544969 3.004014275792469 0
8.148928276044591 3.175368964236075 0
8.080641171277744 3.345330830905042 0
8.008809630225487 3.5138253249073546 0
7.933465160575778 3.6807785389891503 0
7.854640810903167 3.846117241952878 0
9.490508467551592 -3.9310973210765683 0
9.570753732912864 -3.7314809532380453 0
9.646800949370512 -3.530227834526834 0
9.718616760102014 -3.327426241212278 0
9.786169664319248 -3.1231651287758613 0
9.84943003108578 -2.917534092892391 0
9.908370112313971 -2.7106233301303737 0
9.962964054936206 -2.5025235983888234 0
10.013187912244907 -2.2933261770878413 0.07300338503811632
10.05901965439634 -2.0831228271304494 0.07300338503811632
10.100439178073648 -1.8720057506532246 0.07300338503811632
10.137428315304819 -1.6600675505833953 0.07300338503811632
10.169970841431756 -1.4474011900201345 0.07300338503811632
10.198052482226963 -1.234099951457874 0.07300338503811632
10.221660920154678 -1.0202573958695196 0.07300338503811632
10.240785799773763 -0.8059673216675144 0.07300338503811632
10.25541873227993 -0.5913237235607568 0.07300338503811632
10.265553299185362 -0.37642075132541364 0.07300338503811632
10.27118505513406 -0.16135266850771704 0.07300338503811632
10.272311529851738 0.053786188923142596 0.07300338503811632
10.268932229229351 0.26890145395389037 0.07300338503811632
10.261048635539844 0.48389876991965786 0.07300338503811632
10.248664206787957 0.6986838318919347 0.07300338503811632
10.231784375193456 0.9131624280438271 0.07300338503811632
10.210416544808359 1.1272404809744792 0.07300338503811632
10.184570088269286 1.34082408897453 0.07300338503811632
10.154256342686311 1.553819567214505 0.07300338503811632
10.119488604670122 1.766133488838083 0.07300338503811632
10.0802821244997 1.9776727259422 0.07300338503811632
10.036654099433033 2.188344490426024 0.07300338503811632
9.988623666163836 2.3980563746908845 0
9.93621189242756 2.606716392173301 0
9.87944176776039 2.8142330176933297 0
9.818338193415277 3.0205152276005265 0
9.752927971439423 3.2254725396999353 0
9.68323979291801 3.4290150529405676 0
9.609304225389357 3.6310534868489737 0
9.531153699436974 3.831499220690608 0
10.496391264524098 -3.9310973210765687 0.3237841284096152
10.576415923165625 -3.7104153333504026 0.3237841284096152
10.651801416229437 -3.4881058348286555 0.3237841284096152
10.722514677146762 -3.2642663378047763 0.3237841284096152
10.78852468874427 -3.038995025680125 0.3237841284096152
10.849802496849215 -2.812390709897486 0.3237841284096152
10.90632122298972 -2.584552786599104 0.3237841284096152
10.958056076184532 -2.355581193028251 0.3237841284096152
11.004984363817192 -2.1255763636934497 0.3237841284096152
11.047085501589748 -1.8946391863145766 0.3237841284096152
11.084341022551715 -1.662870957570175 0.3237841284096152
11.116734585200296 -1.4303733386653845 0.3237841284096152
11.144251980648296 -1.1972483107399743 0.3237841284096152
11.16688113885661 -0.9635981301360471 0.3237841284096152
11.184612133928548 -0.729525283545026 0.3237841284096152
11.197437188463658 -0.4951324430536062 0.3237841284096152
11.20535067696915 -0.2605224211083827 0.3237841284096152
11.20834912832742 -0.025798125418914568 0.3237841284096152
11.206431227318603 0.20893748618099833 0.3237841284096152
11.19959781519747 0.44358145089402373 0.3237841284096152
11.187851889324419 0.6780308461221829 0.3237841284096152
11.171198601850751 0.912182834612104 0.3237841284096152
11.149645257458745 1.1459347095628396 0.3237841284096152
11.123201310157597 1.3791839396764647 0.3237841284096152
11.09187835913657 1.6118282141316924 0.3237841284096152
11.055690143677221 1.8437654874607818 0.3237841284096152
11.01465253712688 2.0748940243100504 0.3237841284096152
10.968783539936084 2.305112444064368 0.3237841284096152
10.918103271762986 2.5343197653160416 0.3237841284096152
10.862633962648205 2.7624154501585965 0.3237841284096152
10.802399943263998 2.9892994482860256 0.3237841284096152
10.737427634242017 3.214872240878167 0.3237841284096152
10.667745534584359 3.4390348842529384 0.3237841284096152
10.593384209162943 3.661689053266311 0.3237841284096152
10.51437627531277 3.8827370844409654 0.3237841284096152
11.677472615097015 -3.9310973210765687 0.6220171994654689
11.75723824308081 -3.685680631790302 0.6220171994654689
11.831846757790832 -3.4386472811660482 0.6220171994654689
11.901265433466696 -3.19010562619592 0.6220171994654689
11.965463820782942 -2.9401646854641657 0.6220171994654689
12.024413760205112 -2.6889340913280146 0.6220171994654689
12.07808939434147 -2.436524041829305 0.6220171994654689
12.12646717928488 -2.183045252357976 0.6220171994654689
12.16952589493997 -1.928608907088643 0.6220171994654689
12.207246654330946 -1.6733266102115405 0.6220171994654689
12.239612911886057 -1.4173103369792373 0.6220171994654689
12.266610470695028 -1.1606723845905906 0.6220171994654689
12.288227488736284 -0.9035253229334815 0.6220171994654689
12.304454484071265 -0.6459819452079427 0.6220171994654689
12.315284339003508 -0.3881552184513327 0.6220171994654689
12.320712303200713 -0.1301582339872601 0.6220171994654689
12.320735995778385 0.12789584218000924 0.6220171994654689
12.315355406344175 0.3858938190039013 0.6220171994654689
12.30457289500244 0.6437225300448683 0.6220171994654689
12.288393191319022 0.901268883108929 0.6220171994654689
12.266823392246696 1.1584199098536432 0.6220171994654689
12.23987295901223 1.4150628153397595 0.6220171994654689
12.207553712966355 1.6710850275068043 0.6220171994654689
12.169879830398553 1.9263742465509084 0.6220171994654689
12.126867836318848 2.1808184941832107 0.6220171994654689
12.078536597209403 2.43430616274724 0.6220171994654689
12.024907312749056 2.686726064173716 0.6220171994654689
11.966003506514433 2.9379674787513186 0.6220171994654689
11.90185101566174 3.187920203692009 0.6220171994654689
11.832477979593724 3.436474601469613 0.6220171994654689
11.757914827616803 3.6835216479104624 0.6220171994654689
11.678194265593772 3.9289529800150103 0.6220171994654689
13.093260754385236 -3.931097321076568 0.9835509559443862
13.172715876633967 -3.656030602111451 0.9835509559443862
13.246393010336876 -3.3793602272913064 0.9835509559443862
13.31425983826807 -3.101207553386572 0.9835509559443862
13.376286591793795 -2.8216945873530546 0.9835509559443862
13.432446063929957 -2.540943932815646 0.9835509559443862
13.482713621275982 -2.259078736290322 0.9835509559443862
13.527067214819866 -1.976222633168011 0.9835509559443862
13.565487389609578 -1.6924996934840237 0.9835509559443862
13.597957293286656 -1.4080343674968363 0.9835509559443862
13.62446268347821 -1.1229514311000939 0.9835509559443862
13.644991934044086 -0.8373759310917791 0.9835509559443862
13.65953604017649 -0.5514331303245542 0.9835509559443862
13.668088622349787 -0.2652484527613335 0.9835509559443862
13.670645929118768 0.021052571539811542 0.9835509559443862
13.667206838764164 0.3073443614872853 0.9835509559443862
13.657772859784671 0.5935013400399846 0.9835509559443862
13.642348130235261 0.8793979892895396 0.9835509559443862
13.620939415912108 1.1649089055166169 0.9835509559443862
13.59355610738488 1.4499088541971352 0.9835509559443862
13.56021021587772 1.7342728249342674 0.9835509559443862
13.52091636800074 2.01787608629213 0.9835509559443862
13.47569179933429 2.300594240507117 0.9835509559443862
13.424556346868876 2.582303278052867 0.9835509559443862
13.367532440303986 2.8628796320349417 0.9835509559443862
13.304645092209704 3.14220023239135 0.9835509559443862
13.235921887055344 3.420142559875141 0.9835509559443862
13.161392969110015 3.696584699795402 0.9835509559443862
14.832787472076927 -3.9310973210765683 1.432154255165124
14.91186108737052 -3.619600703191234 1.432154255165124
14.984393867549574 -3.3065164088085575 1.432154255165124
15.050353997339476 -2.9919817670475894 1.432154255165124
15.109712544447294 -2.6761347431976716 1.432154255165124
15.162443472252447 -2.359113878202307 1.432154255165124
15.208523651227228 -2.0410582278905207 1.432154255165124
15.247932869082174 -1.7221073019823756 1.432154255165124
15.280653839631848 -1.4024010028954028 1.432154255165124
15.306672210377128 -1.082079564378774 1.432154255165124
15.325976568800687 -0.7612834900021442 1.432154255165124
15.338558447372913 -0.44015349152614497 1.432154255165124
15.34441232726602 -0.11883042718155352 1.432154255165124
15.343535640774821 0.20254476011578254 1.432154255165124
15.335928772442983 0.5238311045871641 1.432154255165124
15.321595058894367 0.8448876794232938 1.432154255165124
15.300540787369467 1.1655736585994305 1.432154255165124
15.272775192967629 1.4857483786463357 1.432154255165124
15.238310454596212 1.8052714003499228 1.432154255165124
15.19716168962854 2.124002570352539 1.432154255165124
15.149346947272907 2.4418020826288576 1.432154255165124
15.0948872006556 2.758530539809422 1.432154255165124
15.033806337621403 3.0740490143249386 1.432154255165124
14.966131150255578 3.3882191093445018 1.432154255165124
14.89189132313199 3.700903019481019 1.432154255165124
17.035731672068476 -3.9310973210765683 2.005174083933646
17.114322145295016 -3.573465720775405 2.005174083933646
17.185405711195 -3.214266680304963 2.005174083933646
17.248951190167077 -2.853657756236032 2.005174083933646
17.304930709063985 -2.491797123560945 2.005174083933646
17.35331971341859 -2.1288435063128 2.005174083933646
17.394096978214307 -1.7649561079438498 2.005174083933646
17.427244617195097 -1.4002945414936108 2.005174083933646
17.45274809071097 -1.0350187595773053 2.005174083933646
17.470596212095536 -0.6692889842253594 2.005174083933646
17.480781152572877 -0.30326563660472466 2.005174083933646
17.483298444691478 0.06289073334714809 2.005174083933646
17.478146984283818 0.4290195173448166 2.005174083933646
17.4653290309507 0.7949601192029505 2.005174083933646
17.444850207070075 1.1605520252791235 2.005174083933646
17.416719495330945 1.5256348748804058 2.005174083933646
17.3809492347932 1.8900485306028627 2.005174083933646
17.33755511547533 2.2536331485731087 2.005174083933646
17.28655617147226 2.616229248561118 2.005174083933646
17.22797477260636 2.9776777839335233 2.005174083933646
17.1618366146153 3.337820211416725 2.005174083933646
17.08817070788107 3.69649856063921 2.005174083933646
19.93465582943455 -3.9310973210765683 2.7648507996163105
20.012610520688213 -3.5127552338618373 2.7648507996163105
20.08178701954454 -3.092872336103889 2.7648507996163105
20.142154982904824 -2.671632802318939 2.7648507996163105
20.193687931385163 -2.2492214020886023 2.7648507996163105
20.23636326093117 -1.8258234190138467 2.7648507996163105
20.270162252732874 -1.401624569443484 2.7648507996163105
20.2950700814354 -0.9768109210128375 2.7648507996163105
20.31107582164187 -0.5515688110283323 2.7648507996163105
20.31817245270564 -0.12608476473379043 2.7648507996163105
20.31635686180977 0.29945458650570417 2.7648507996163105
20.30562984533244 0.7248625870664906 2.7648507996163105
20.285996108497603 1.1499526389396573 2.7648507996163105
20.257464263311142 1.5745382835790955 2.7648507996163105
20.22004682478334 1.9984332836883778 2.7648507996163105
20.173760205439386 2.4214517049105972 2.7648507996163105
20.11862470812032 2.8434079973853166 2.7648507996163105
20.05466451707751 3.2641170771368695 2.7648507996163105
19.981907687364647 3.683394407258311 2.7648507996163105
23.947916136803865 -3.9310973210765683 3.823211639160437
24.024990653752376 -3.4287078514036993 3.823211639160437
24.091527015766783 -2.924814437147351 3.823211639160437
24.147496037799662 -2.419638102612848 3.823211639160437
24.192873169988157 -1.9134004348367524 3.823211639160437
24.227638508422363 -1.4063234863914615 3.823211639160437
24.25177680387583 -0.8986296779856139 3.823211639160437
24.265277468494403 -0.3905417009030131 3.823211639160437
24.268134580440375 0.1177175806771277 3.823211639160437
24.260346886490016 0.6259252274357812 3.823211639160437
24.24191780258328 1.1338583227026588 3.823211639160437
24.21285541232546 1.6412940702348315 3.823211639160437
24.173172463441436 2.148009891942523 3.823211639160437
24.12288636218413 2.653783525519218 3.823211639160437
24.062019165699517 3.158393121933254 3.823211639160437
23.990597572351664 3.6616173427381407 3.823211639160437
29.91192759833276 -3.9310973210765683 5.404304466200792
29.987694109011546 -3.3038070191872073 5.404304466200792
30.05030702595156 -2.675067558347388 5.404304466200792
30.09973888505806 -2.045154724464669 5.404304466200792
30.135968003883903 -1.414344818126803 5.404304466200792
30.158978491140182 -0.7829145334071739 5.404304466200792
30.168760253666694 -0.1511408364976249 5.404304466200792
30.165309000859093 0.48069915577806327 5.404304466200792
30.148626246550933 1.1123282975167714 5.404304466200792
30.118719308349622 1.743469535301395 5.404304466200792
30.075601304426687 2.373846029725628 5.404304466200792
30.019291147763713 3.0031812768248787 5.404304466200792
29.949813537856482 3.631199229360045 5.404304466200792
39.777947600353976 -3.9310973210765683 8.030898979838627
39.85155032980881 -3.097188685727281 8.030898979838627
39.90767285218294 -2.2619215210573906 8.030898979838627
39.94629055028318 -1.425662202851159 8.030898979838627
39.96738648511082 -0.5887775420841809 8.030898979838627
39.97095140329162 0.24836537597203517 8.030898979838627
39.956983741134636 1.0853993527657975 8.030898979838627
39.92548962531813 1.9219572375306528 8.030898979838627
39.87648287020219 2.7576720883298464 8.030898979838627
39.809984971769296 3.5921773330091837 8.030898979838627
