# .PCD v0.7 - Point Cloud Data file format
VERSION 0.7
FIELDS x y z
SIZE 4 4 4
TYPE F F F
COUNT 1 1 1
WIDTH 664
HEIGHT 1
VIEWPOINT 0 0 0 1 0 0 0
POINTS 664
DATA ascii
4.51946592172637 -2.259732960863184 0.009330608700119224
4.595576328214913 -2.1006293065670127 0.009330608700119224
4.6660877328417945 -1.9389663590379287 0.009330608700119224
4.7309142283219225 -1.774941079675228 0.009330608700119224
4.789976833556313 -1.608753308015657 0.009330608700119224
4.8432035898583825 -1.4406055182597188 0.009330608700119224
4.890529648624532 -1.27070257258805 0.009330608700119224
4.931897350342175 -1.0992514715684087 0.009330608700119224
4.9672562948389745 -0.9264611019573702 0.009330608700119224
4.996563402687688 -0.7525419822039889 0.009330608700119224
5.0197829676918175 -0.5777060059654981 0.009330608700119224
5.036886700388104 -0.4021661839475268 0.009330608700119224
5.047853762512886 -0.22613638438336697 0.009330608700119224
5.05267079239031 -0.04983107246847569 0.009330608700119224
5.051331921211477 0.12653495093233014 0.009330608700119224
5.043838780184681 0.30274681098663964 0.009330608700119224
5.0302004985480355 0.4785898206863337 0.009330608700119224
5.010433692446895 0.653849742410632 0.009330608700119224
4.9845624446896535 0.828313048941634 0.009330608700119224
4.952618275406541 1.0017671836143447 0.009330608700119224
4.9146401036472085 1.1740008192842273 0.009330608700119224
4.8706741999638545 1.3448041157967747 0.009330608700119224
4.82077413003769 1.5139689756454173 0.009330608700119224
4.765000689417403 1.681289297506279 0.009330608700119224
4.703421829449148 1.8465612273408922 0.009330608700119224
4.636112574488303 2.0095834067609424 0.009330608700119224
4.563154930493841 2.170157218352448 0.009330608700119224
4.645491522686572 -2.2699566171619505 0.030050523138469808
4.7218819582433955 -2.106448504845454 0.030050523138469808
4.792519507984257 -1.9403740094993223 0.030050523138469808
4.857318110935676 -1.7719354673143184 0.030050523138469808
4.9161988199814175 -1.6013380947081268 0.030050523138469808
4.969089898047387 -1.4287897383007573 0.030050523138469808
5.015926905502207 -1.2545006216854555 0.030050523138469808
5.056652778666981 -1.078683089303637 0.030050523138469808
5.091217899338598 -0.9015513477358941 0.030050523138469808
5.119580155241869 -0.7233212047242744 0.030050523138469808
5.141704991336846 -0.5442098062437882 0.030050523138469808
5.157565451918817 -0.36443537194348835 0.030050523138469808
5.1671422134596785 -0.18421692927944094 0.030050523138469808
5.170423608150682 -0.0037740466635091635 0.030050523138469808
5.167405638117855 0.17667343404693478 0.030050523138469808
5.158091980292801 0.3569056653924485 0.030050523138469808
5.14249398193292 0.5367030621617853 0.030050523138469808
5.120630646796526 0.715846568922647 0.030050523138469808
5.092528611989694 0.8941179269069868 0.030050523138469808
5.058222115513051 1.0712999399256988 0.030050523138469808
5.017752954548042 1.2471767389887172 0.030050523138469808
4.971170434533506 1.421534045308127 0.030050523138469808
4.918531309094594 1.5941594313638618 0.030050523138469808
4.859899710897219 1.7648425797139156 0.030050523138469808
4.795347073512276 1.9333755392337477 0.030050523138469808
4.72495204438485 2.0995529784726945 0.030050523138469808
4.648800389014409 2.263172435818716 0.030050523138469808
4.776680700670278 -2.2800335195736987 0.05165351760488135
4.853342898146977 -2.111940832396076 0.05165351760488135
4.924092044902446 -1.9412750706337252 0.05165351760488135
4.988841943999435 -1.768244164228308 0.05165351760488135
5.047513707659851 -1.593058924685912 0.05165351760488135
5.100035853377366 -1.4159327882357013 0.05165351760488135
5.14634439100784 -1.2370815557907515 0.05165351760488135
5.186382900731455 -1.0567231300278763 0.05165351760488135
5.220102601791569 -0.875077249906782 0.05165351760488135
5.247462411926565 -0.6923652229519932 0.05165351760488135
5.268428997422248 -0.5088096556237242 0.05165351760488135
5.282976813723846 -0.3246341821061968 0.05165351760488135
5.291088136558117 -0.14006319184383534 0.05165351760488135
5.292753083527638 0.04467844384270711 0.05165351760488135
5.287969626150994 0.22936564572761392 0.05165351760488135
5.276743592334163 0.41377340090427056 0.05165351760488135
5.259088659270111 0.5976770369288322 0.05165351760488135
5.235026336775245 0.7808524955489861 0.05165351760488135
5.204585941083009 0.963076605684419 0.05165351760488135
5.1678045591265676 1.1441273553264042 0.05165351760488135
5.124727003354098 1.323784162025233 0.05165351760488135
5.075405757131722 1.5018281416359527 0.05165351760488135
5.0199009108006045 1.6780423749949789 0.05165351760488135
4.958280088466133 1.8522121722026867 0.05165351760488135
4.890618365608365 2.0241253341899794 0.05165351760488135
4.816998177614109 2.1935724112501664 0.05165351760488135
4.913372108720092 -2.2899599452437625 0.07419952202828053
4.990297464744225 -2.11709074981133 0.07419952202828053
5.061142912003963 -1.9416422054130829 0.07419952202828053
5.125822136234727 -1.7638280690745933 0.07419952202828053
5.184256335764858 -1.5838649799308222 0.07419952202828053
5.236374317523332 -1.4019721952847026 0.07419952202828053
5.282112583777532 -1.2183713234758897 0.07419952202828053
5.321415409495469 -1.0332860538851367 0.07419952202828053
5.354234910238141 -0.8469418844032399 0.07419952202828053
5.380531100499351 -0.6595658466965938 0.07419952202828053
5.400271942421881 -0.471386229604078 0.07419952202828053
5.413433384830694 -0.28263230100227194 0.07419952202828053
5.419999392535579 -0.09353402847786312 0.07419952202828053
5.4199619658675635 0.09567820085243338 0.07419952202828053
5.413321150425277 0.2847738610330882 0.07419952202828053
5.400085037019398 0.47352256813012444 0.07419952202828053
5.380269751815243 0.6616943609184548 0.07419952202828053
5.3538994366855235 0.8490599810542087 0.07419952202828053
5.321006219797189 1.0353911523907113 0.07419952202828053
5.281630176468207 1.2204608590978063 0.07419952202828053
5.235819280341959 1.4040436222456747 0.07419952202828053
5.183629344938747 1.5859157745161772 0.07419952202828053
5.125123955655615 1.7658557327070288 0.07419952202828053
5.060374392297343 1.9436442676968004 0.07419952202828053
4.989459542232977 2.1190647715418316 0.07419952202828053
5.055935726783368 -2.2997321665598407 0.09775400751876709
5.133115282508913 -2.121881619635723 0.09775400751876709
5.204040927958516 -1.9414458868088864 0.09775400751876709
5.268626251158455 -1.7586448012257863 0.09775400751876709
5.326792564841016 -1.5737010778508573 0.09775400751876709
5.378469002312811 -1.3868400421226348 0.09775400751876709
5.423592603794926 -1.198289355429418 0.09775400751876709
5.4621083931297125 -1.0082787377389355 0.09775400751876709
5.49396944476077 -0.8170396877199515 0.09775400751876709
5.519136940904503 -0.6248052006967965 0.09775400751876709
5.537580218843616 -0.4318094847804556 0.09775400751876709
5.549276808284912 -0.23828767552206173 0.09775400751876709
5.554212458735874 -0.04447554943644689 0.09775400751876709
5.55238115686671 0.14939076325522307 0.09775400751876709
5.543785133836655 0.34307506631374957 0.09775400751876709
5.528434862575656 0.5363413852506351 0.09775400751876709
5.506349045024716 0.7289542548266504 0.09775400751876709
5.477554589350462 0.9206790059299546 0.09775400751876709
5.442086577161687 1.1112820514842614 0.09775400751876709
5.399988220767815 1.3005311710387122 0.09775400751876709
5.351310810531357 1.4881957936927221 0.09775400751876709
5.296113652378505 1.6740472790111065 0.09775400751876709
5.234463995543999 1.8578591955872301 0.09775400751876709
5.16643695063829 2.0394075969148013 0.09775400751876709
5.092115398136833 2.2184712942321907 0.09775400751876709
5.204776579372825 -2.3093464546231526 0.12238864213763927
5.282200999087081 -2.126295580090373 0.12238864213763927
5.353189870544638 -1.940654141923979 0.12238864213763927
5.417656704740622 -1.7526483156205048 0.12238864213763927
5.475522958767922 -1.5625071573192237 0.12238864213763927
5.526718131509615 -1.370462324732526 0.12238864213763927
5.571179849533731 -1.1767477949066796 0.12238864213763927
5.608853943085657 -0.9815995791568415 0.12238864213763927
5.639694512085652 -0.7852554355236246 0.12238864213763927
5.663663982051013 -0.5879545791015495 0.12238864213763927
5.6807331498748015 -0.38993739059229904 0.12238864213763927
5.690881219405329 -0.19144512343786235 0.12238864213763927
5.694095826783061 0.007280390109622815 0.12238864213763927
5.690373055504081 0.20599703362321753 0.12238864213763927
5.679717441191744 0.4044627014827529 0.12238864213763927
5.662141966070717 0.6024355938432341 0.12238864213763927
5.637668043150142 0.7996745112307074 0.12238864213763927
5.606325490135177 0.9959391484066616 0.12238864213763927
5.568152493098721 1.190990387142947 0.12238864213763927
5.523195559957566 1.3845905875505038 0.12238864213763927
5.471509463809656 1.5765038776069609 0.12238864213763927
5.413157176201517 1.7664964405303603 0.12238864213763927
5.348209790407118 1.9543367996488896 0.12238864213763927
5.276746434811672 2.1397961004195527 0.12238864213763927
5.360338994294217 -2.3187990828256604 0.14818204205191543
5.437998541555242 -2.1303134000205985 0.14818204205191543
5.509032725252842 -1.9392322584872357 0.14818204205191543
5.57335500117616 -1.745788461162736 0.14818204205191543
5.630887002540069 -1.5502176895164066 0.14818204205191543
5.681558635463033 -1.3527582164081304 0.14818204205191543
5.725308164365702 -1.1536506157895903 0.14818204205191543
5.762082287186207 -0.9531374696019652 0.14818204205191543
5.7918362003205095 -0.7514630722272019 0.14818204205191543
5.814533653208696 -0.5488731328529424 0.14818204205191543
5.830146992500695 -0.3456144761137263 0.14818204205191543
5.838657195747631 -0.14193474137319453 0.14818204205191543
5.840053894577744 0.06191791898632962 0.14818204205191543
5.834335387328652 0.2656951418992932 0.14818204205191543
5.821508641120573 0.46914865620905166 0.14818204205191543
5.801589283367951 0.6720305851480295 0.14818204205191543
5.774601582739867 0.8740937483373811 0.14818204205191543
5.7405784195923975 1.0750919629382039 0.14818204205191543
5.699561245908972 1.2747803435874074 0.14818204205191543
5.651600034797514 1.472915600752808 0.14818204205191543
5.596753219605903 1.6692563371439477 0.14818204205191543
5.535087622729946 1.8635633418175044 0.14818204205191543
5.466678374200579 2.0555998816189827 0.14818204205191543
5.3916088201495 2.245131989605597 0.14818204205191543
5.523111496526561 -2.328086330529196 0.17522063466195473
5.6009960074477965 -2.133914311778851 0.17522063466195473
5.672056567501253 -1.937142447143905 0.17522063466195473
5.736206600340544 -1.7380104728310328 0.17522063466195473
5.79336794903221 -1.5367610004770067 0.17522063466195473
5.8434709712779025 -1.3336392215637842 0.17522063466195473
5.886454624262792 -1.12889260869046 0.17522063466195473
5.922266539026843 -0.9227706140660225 0.17522063466195473
5.950863084268316 -0.7155243655902619 0.17522063466195473
5.972209419501796 -0.5074063608931088 0.17522063466195473
5.9862795375059505 -0.29867015970516564 0.17522063466195473
5.993056296009327 -0.08957007493423298 0.17522063466195473
5.99253143857557 0.1196391371757947 0.17522063466195473
5.984705604662614 0.32870258742617 0.17522063466195473
5.969588328843604 0.5373655642065186 0.17522063466195473
5.947198029190488 0.7453738438217009 0.17522063466195473
5.917561984834433 0.9524740002242259 0.17522063466195473
5.880716302730402 1.15841371377485 0.17522063466195473
5.836705873666398 1.3629420786551927 0.17522063466195473
5.785584317570948 1.5658099085578265 0.17522063466195473
5.7274139181854835 1.76677004028141 0.17522063466195473
5.662265547181191 1.965577634860972 0.17522063466195473
5.590218577812803 2.1619904758664794 0.17522063466195473
5.693632450515683 -2.337204486841882 0.20359965367190155
5.771731303745238 -2.1370758180856253 0.20359965367190155
5.84279819144823 -1.934343451636325 0.20359965367190155
5.90674652956901 -1.7292543856539733 0.20359965367190155
5.963498406908062 -1.5220584895739198 0.20359965367190155
6.0129846800448075 -1.3130081996794578 0.20359965367190155
6.055145057578202 -1.1023582115470947 0.20359965367190155
6.089928173582532 -0.8903651697392269 0.20359965367190155
6.117291650188874 -0.6772873551222721 0.20359965367190155
6.1372021492160025 -0.4633843701912202 0.20359965367190155
6.149635412787831 -0.24891682278398064 0.20359965367190155
6.154576292887896 -0.034146008570876005 0.20359965367190155
6.152018769814878 0.18066640729388284 0.20359965367190155
6.141965959516685 0.3952587089708807 0.20359965367190155
6.124430109794149 0.6093694487959342 0.20359965367190155
6.099432585378968 0.8227377658137974 0.20359965367190155
6.067003841904066 1.0351037035970547 0.20359965367190155
6.027183388798104 1.2462085269629812 0.20359965367190155
5.98001974114932 1.4557950372025108 0.20359965367190155
5.925570360597372 1.6636078854372436 0.20359965367190155
5.863901585325176 1.8693938837227215 0.20359965367190155
5.795088549236058 2.0729023135189366 0.20359965367190155
5.719215090414655 2.2738852311522515 0.20359965367190155
5.8724965878288735 -2.3461498544867356 0.23342429024936845
5.950798670687348 -2.139773468083848 0.23342429024936845
6.021850622015856 -1.9307900973169352 0.23342429024936845
6.085565875956417 -1.7194543562318565 0.23342429024936845
6.141866805286686 -1.5060237248753485 0.23342429024936845
6.190684815996767 -1.290758235595251 0.23342429024936845
6.2319604308604495 -1.0739201562311447 0.23342429024936845
6.265643361899043 -0.8557736705813894 0.23342429024936845
6.291692571649534 -0.6365845565358592 0.23342429024936845
6.3100763231624155 -0.4166198622665239 0.23342429024936845
6.320772218668268 -0.19614758087038697 0.23342429024936845
6.3237672268659955 0.024563676138821943 0.23342429024936845
6.319057698799452 0.24524500609239994 0.23342429024936845
6.306649372303141 0.46562754278315155 0.23342429024936845
6.286557365011544 0.6854427840374465 0.23342429024936845
6.258806155940606 0.9044229188437583 0.23342429024936845
6.223429555663835 1.1223011536391303 0.23342429024936845
6.180470665119322 1.338812037356033 0.23342429024936845
6.129981823097885 1.5536917848336018 0.23342429024936845
6.072024542476316 1.7666785981992232 0.23342429024936845
6.006669435273419 1.977512985828916 0.23342429024936845
5.933996126620138 2.1859380784979 0.23342429024936845
6.0603625865283055 -2.3549187537568583 0.2648110296065502
6.138856256667505 -2.14198059677534 0.2648110296065502
6.20987067607627 -1.9264327663834684 0.2648110296065502
6.2733193246234835 -1.7085378744099775 0.2648110296065502
6.329124899904408 -1.4885613922166026 0.2648110296065502
6.377219411421751 -1.2667713272621164 0.2648110296065502
6.417544263421622 -1.0434378965765254 0.2648110296065502
6.450050326283425 -0.8188331975432427 0.2648110296065502
6.474697996376739 -0.5932308763903381 0.2648110296065502
6.4914572443122385 -0.3669057947947634 0.2648110296065502
6.5003076515278755 -0.1401336950057363 0.2648110296065502
6.501238435165761 0.08680913610471436 0.2648110296065502
6.494248461209409 0.3136462036547437 0.2648110296065502
6.479346245865361 0.5401011416191138 0.2648110296065502
6.456549945187502 0.7658980495386241 0.2648110296065502
6.4258873329567106 0.9907618286623214 0.2648110296065502
6.387395766842773 1.214418517112955 0.2648110296065502
6.341122142889831 1.436595623667318 0.2648110296065502
6.287122838380764 1.657022459744834 0.2648110296065502
6.225463643150161 1.8754304691998935 0.2648110296065502
6.15621967942954 2.091553555516151 0.2648110296065502
6.07947531032248 2.3051284060041395 0.2648110296065502
6.2579619053328015 -2.3635075265511523 0.2978892088083005
6.336634947153753 -2.143668020746275 0.2978892088083005
6.407587775375384 -1.921216785664863 0.2978892088083005
6.470733944905954 -1.696424843870877 0.2978892088083005
6.525996521864809 -1.46956606971885 0.2978892088083005
6.573308177314474 -1.24091685568017 0.2978892088083005
6.612611269290586 -1.0107557756014318 0.2978892088083005
6.643857913029747 -0.7793632453051149 0.2978892088083005
6.667010039309738 -0.5470211809460986 0.2978892088083005
6.682039440831 -0.3140126555402529 0.2978892088083005
6.688927806582879 -0.08062155408357295 0.2978892088083005
6.6876667441527795 0.15286777231795948 0.2978892088083005
6.6782577899510205 0.38617085288639763 0.2978892088083005
6.660712407338958 0.6190034437556534 0.2978892088083005
6.635051972662646 0.8510818742788641 0.2978892088083005
6.601307749209051 1.0821233926373783 0.2978892088083005
6.559520849116551 1.3118465103302948 0.2978892088083005
6.509742183286131 1.5399713451248376 0.2978892088083005
6.452032399354291 1.7662199620497465 0.2978892088083005
6.386461807803239 1.990316712016226 0.2978892088083005
6.313110296298405 2.2119885676539015 0.2978892088083005
6.4661091217225 -2.3719125404840087 0.3328028397387637
6.54494869663921 -2.144803681479712 0.3328028397387637
6.615814259741127 -1.915081709571212 0.3328028397387637
6.678619472255611 -1.6830265055953233 0.3328028397387637
6.7332878157056175 -1.4489207930727255 0.3328028397387637
6.779752685135665 -1.213049793752907 0.3328028397387637
6.817957470259716 -0.9757008801153971 0.3328028397387637
6.847855624432094 -0.7371632252506655 0.3328028397387637
6.869410721357397 -0.497727450547256 0.3328028397387637
6.88259649947033 -0.257685271614391 0.3328028397387637
6.887396893931376 -0.01732914287143705 0.3328028397387637
6.883806056199328 0.2230480987627559 0.3328028397387637
6.871828361156837 0.4631535906465322 0.3328028397387637
6.851478401780287 0.7026948012234471 0.3328028397387637
6.822780971360512 0.9413798864269076 0.3328028397387637
6.785771033295974 1.1789180452472117 0.3328028397387637
6.740493678495263 1.4150198740277864 0.3328028397387637
6.687004070440762 1.6493977190589606 0.3328028397387637
6.625367377980442 1.8817660270397023 0.3328028397387637
6.555658695929662 2.1118416929803314 0.3328028397387637
6.4779629535797 2.33934440512234 0.3328028397387637
6.6857140813360205 -2.3801301930619445 0.3697127514195562
6.764706670783908 -2.1453522255218465 0.3697127514195562
6.835457507176627 -1.9079604767611262 0.3697127514195562
6.897880391518362 -1.668244172058254 0.3697127514195562
6.951899271140054 -1.426495368805044 0.3697127514195562
6.997448332357852 -1.1830086006797116 0.3697127514195562
7.034472080656957 -0.9380805188029565 0.3697127514195562
7.06292540830314 -0.6920095303142666 0.3697127514195562
7.082773649299561 -0.4450954348087852 0.3697127514195562
7.093992621621954 -0.1976390590776851 0.3697127514195562
7.096568656680695 0.05005810940293795 0.3697127514195562
7.090498615973871 0.29769428978811413 0.3697127514195562
7.075789894911068 0.5449677755374736 0.3697127514195562
7.052460413803193 0.7915773019981911 0.3697127514195562
7.020538596029347 1.0372224134495598 0.3697127514195562
6.9800633334073074 1.2816038291620044 0.3697127514195562
6.931083938809843 1.524423808024552 0.3697127514195562
6.873660086084573 1.7653865112965084 0.3697127514195562
6.807861737350579 2.0041983630413944 0.3697127514195562
6.733769057760332 2.240568407804006 0.3697127514195562
6.91779623995677 -2.3881569159197134 0.40879911891140447
6.996927579812183 -2.1452745081874305 0.40879911891140447
7.067534241205664 -1.899778413921127 0.40879911891140447
7.129530200796428 -1.651967732295891 0.40879911891140447
7.1828399260574605 -1.4021443824549746 0.40879911891140447
7.227398467300263 -1.1506127356678217 0.40879911891140447
7.26315153680605 -0.8976792445005626 0.40879911891140447
7.290055574966965 -0.6436520694507667 0.40879911891140447
7.30807780335676 -0.3888407035013458 0.40879911891140447
7.317196264666252 -0.13355559505102726 0.40879911891140447
7.317399849454928 0.12189223031919864 0.40879911891140447
7.308688309686081 0.3771915487828393 0.40879911891140447
7.291072259029011 0.6320313174461921 0.40879911891140447
7.2645731599279 0.8861010533061978 0.40879911891140447
7.229223297453127 1.1390912115261538 0.40879911891140447
7.18506573996689 1.3906935625684145 0.40879911891140447
7.132154286651035 1.640601567724608 0.40879911891140447
7.070553401961044 1.8885107525858271 0.40879911891140447
7.000338137086023 2.1341190779978008 0.40879911891140447
6.921594038510387 2.377127308049077 0.40879911891140447
7.163501673968535 -2.3959891791079437 0.45026446270882803
7.242756678755597 -2.144527004188467 0.45026446270882803
7.313187500190735 -1.8904520534534486 0.45026446270882803
7.374708329167067 -1.6340738780931117 0.45026446270882803
7.4272442120310425 -1.3757048354221035 0.45026446270882803
7.470731141901924 -1.1156597083202182 0.45026446270882803
7.505116136654312 -0.8542553217179486 0.45026446270882803
7.530357303468702 -0.5918101565941104 0.45026446270882803
7.546423889871437 -0.3286439619558285 0.45026446270882803
7.553296321201851 -0.06507736527362498 0.45026446270882803
7.550966224460986 0.1985685181537648 0.45026446270882803
7.539436438512795 0.46197247642891964 0.45026446270882803
7.5187210106254305 0.7248135924029506 0.45026446270882803
7.488845179356806 0.9867716346636135 0.45026446270882803
7.449845343805302 1.2475274476879568 0.45026446270882803
7.401769019263075 1.5067633406841638 0.45026446270882803
7.34467477932599 1.764163474648848 0.45026446270882803
7.278632184530715 2.019414247168223 0.45026446270882803
7.2037216976059275 2.272204674494342 0.45026446270882803
7.424123356984174 -2.4036234954239593 0.4943372240183156
7.5034860318808 -2.143061104318251 0.4943372240183156
7.573706864870998 -1.8798877233701872 0.4943372240183156
7.6347003026864595 -1.614423988805702 0.4943372240183156
7.686392034218525 -1.3469933272938088 0.4943372240183156
7.728719081054822 -1.077921561901024 0.4943372240183156
7.761629874208763 -0.8075365151261507 0.4943372240183156
7.78508431694841 -0.5361676094990604 0.4943372240183156
7.7990538336481645 -0.26414546623008456 0.4943372240183156
7.8035214046037655 0.008198497601002793 0.4943372240183156
7.798481586768181 0.28053247282564503 0.4943372240183156
7.783940520383119 0.5525246624448641 0.4943372240183156
7.7599159214980915 0.8238436858727937 0.4943372240183156
7.726437060386132 1.0941589826728788 0.4943372240183156
7.6835447258824825 1.3631412152948477 0.4943372240183156
7.631291175689681 1.6304626703217873 0.4943372240183156
7.569740072709591 1.8957976577384612 0.4943372240183156
7.498966407479975 2.1588229077344234 0.4943372240183156
7.701125458419885 -2.4110564247769677 0.5412760491822902
7.78057879661411 -2.140822271805887 0.5412760491822902
7.8505526980509455 -1.8679798566650019 0.5412760491822902
7.910961910310146 -1.5928615958090089 0.5412760491822902
7.961732834071899 -1.3158026784600425 0.5412760491822902
8.002803612786263 -1.037140658231237 0.5412760491822902
8.034124208035841 -0.7572150418696484 0.5412760491822902
8.05565646049989 -0.4763668756195771 0.5412760491822902
8.067374136445574 -0.19493832971025538 0.5412760491822902
8.069262959689718 0.08672771852587058 0.5412760491822902
8.061320628992155 0.3682881023963536 0.5412760491822902
8.043556820859415 0.6493997839444999 0.5412760491822902
8.015993177755403 0.9297202718882781 0.5412760491822902
7.978663281733389 1.2089080388931899 0.5412760491822902
7.931612613521443 1.486622937670718 0.5412760491822902
7.874898497111185 1.762526615395403 0.5412760491822902
7.80859002991732 2.0362829259356414 0.5412760491822902
7.7327679985930855 2.3075583393959667 0.5412760491822902
7.99617262649296 -2.4182845785784646 0.5913749529589684
8.075698488854062 -2.1377490247421376 0.5913749529589684
8.145385356572486 -1.8546089530141556 0.5913749529589684
8.205148326934355 -1.569209325957535 0.5913749529589684
8.254914587966063 -1.281897859055402 0.5913749529589684
8.294623507144449 -0.9930245970732378 0.5913749529589684
8.324226705268183 -0.7029414875832527 0.5913749529589684
8.343688115400376 -0.4120019521704828 0.5913749529589684
8.35298402681058 -0.12056045584302885 0.5913749529589684
8.352103113862666 0.17102792482895524 0.5913749529589684
8.341046449813371 0.4624079343193675 0.5913749529589684
8.319827505504689 0.7532245709702935 0.5913749529589684
8.28847213295173 1.043123519506843 0.5913749529589684
8.247018533846028 1.3317515827157336 0.5913749529589684
8.195517213012655 1.6187571117616906 0.5913749529589684
8.134030916877874 1.903790434617383 0.5913749529589684
8.062634557022289 2.186504282084931 0.5913749529589684
8.311165490679379 -2.425304624148274 0.6449695784277228
8.390744463955656 -2.1337717014648763 0.6449695784277228
8.460100607597704 -1.839639106645577 0.6449695784277228
8.519149421827994 -1.5432651949495113 0.6449695784277228
8.567818964762155 -1.2450110523351792 0.6449695784277228
8.60604994005909 -0.9452400555328273 0.6449695784277228
8.633795769164434 -0.6443174293258773 0.6449695784277228
8.651022648059335 -0.34260980158078536 0.6449695784277228
8.65770958844546 -0.04048475656746141 0.6449695784277228
8.653848443315992 0.2616896128855413 0.6449695784277228
8.639443916881504 0.5635451538554377 0.6449695784277228
8.614513558838615 0.8647141018628375 0.6449695784277228
8.579087742988369 1.164829528936114 0.6449695784277228
8.533209630230452 1.4635257906566157 0.6449695784277228
8.476935115978277 1.7604389716400681 0.6449695784277228
8.410332762059038 2.055207328911412 0.6449695784277228
8.333483713181678 2.3474717326328984 0.6449695784277228
8.648283981245537 -2.4321132891263466 0.7024448352219058
8.727895210026949 -2.128810953138342 0.7024448352219058
8.796872842924136 -1.8229149889221277 0.7024448352219058
8.855132841316603 -1.5147980835904398 0.7024448352219058
8.902604224370576 -1.204835630130654 0.7024448352219058
8.939229155518206 -0.8934052700462555 0.7024448352219058
8.964963012922528 -0.5808864332588378 0.7024448352219058
8.979774443842294 -0.26765987583118983 0.7024448352219058
8.983645402830453 0.04589278392531527 0.7024448352219058
8.976571173719753 0.3593895303938488 0.7024448352219058
8.958560375368666 0.6724484160793107 0.7024448352219058
8.92963495116063 0.9846880269525179 0.7024448352219058
8.889830142269423 1.2957279471444463 0.7024448352219058
8.839194444723217 1.6051892224243687 0.7024448352219058
8.777789550319643 1.9126948218972117 0.7024448352219058
8.705690271463832 2.2178700973576237 0.7024448352219058
9.010040550359033 -2.438707365880079 0.7642442836431415
9.089661536772798 -2.122775890767797 0.7642442836431415
9.158208170759032 -1.8042581402211746 0.7642442836431415
9.215596938803019 -1.483542179055353 0.7642442836431415
9.26175792153096 -1.1610187502665068 0.7642442836431415
9.296634878895953 -0.8370807989716892 0.7642442836431415
9.320185318697837 -0.5121229936657371 0.7642442836431415
9.33238054835338 -0.18654124537850308 0.7642442836431415
9.333205709853772 0.13926777468174859 0.7642442836431415
9.322659797866837 0.46490711841110666 0.7642442836431415
9.300755660961856 0.7899800444301326 0.7642442836431415
9.267519985955577 1.1140905014521176 0.7642442836431415
9.222993265398426 1.4368436108105693 0.7642442836431415
9.16722974824059 1.7578461475580394 0.7642442836431415
9.100297373738014 2.0767070195501516 0.7642442836431415
9.022277688678887 2.3930377439311354 0.7642442836431415
9.399346039719028 -2.4450837158966787 0.8308817486638137
9.478952403153736 -2.115561790842065 0.8308817486638137
9.547010123205887 -1.7834623796226237 0.8308817486638137
9.603436282027085 -1.4491900942149312 0.8308817486638137
9.648162133034589 -1.1131521939080589 0.8308817486638137
9.681133184668438 -0.7757580891208605 0.8308817486638137
9.702309266781013 -0.4374188425984414 0.8308817486638137
9.711664579578189 -0.09854666859552352 0.8308817486638137
9.709187725052397 0.2404455693431274 0.8308817486638137
9.694881720869345 0.5791448613933344 0.8308817486638137
9.668763996691462 0.9171385546403606 0.8308817486638137
9.630866372942531 1.2540148558329218 0.8308817486638137
9.581235022039406 1.5893633330898311 0.8308817486638137
9.519930412138041 1.922775415948024 0.8308817486638137
9.44702723346235 2.2538448931427317 0.8308817486638137
9.819591845193102 -2.4512392741498004 0.9029558074968322
9.899157032122734 -2.1070472321930347 0.9029558074968322
9.966661621056971 -1.7602880777495868 0.9029558074968322
10.02202336805248 -1.4113842834349932 0.9029558074968322
10.065174823348373 -1.0607609347781164 0.9029558074968322
10.096063413543343 -0.7088452123199086 0.9029558074968322
10.114651505648258 -0.3560658711597235 0.9029558074968322
10.120916452936166 -0.002852718583273069 0.9029558074968322
10.114850622533838 0.3503639095913435 0.9029558074968322
10.09646140472125 0.703153673311546 0.9029558074968322
10.065771203927662 1.0550867525933385 0.9029558074968322
10.022817411435282 1.4057343711907513 0.9029558074968322
9.967652359823735 1.7546693189936482 0.9029558074968322
9.900343259210885 2.10146647251744 0.9029558074968322
9.820972115367658 2.445703312850564 0.9029558074968322
10.274753285027835 -2.4571710534295135 0.9811680158927187
10.354248216017782 -2.0970904928244645 0.9811680158927187
10.421128090506182 -1.7344549504859352 0.9811680158927187
10.475311425668023 -1.369706241962543 0.9811680158927187
10.516732207455716 -1.0032887573703915 0.9811680158927187
10.545339971027033 -0.63564891997217 0.9811680158927187
10.56109986222875 -0.2672346422791725 0.9811680158927187
10.563992680061064 0.10150521966110125 0.9811680158927187
10.554014900071051 0.47012141312689837 0.9811680158927187
10.53117867864667 0.8381648360674526 0.9811680158927187
10.495511838206074 1.2051870842646542 0.9811680158927187
10.447057833300287 1.570740997644518 0.9811680158927187
10.385875697670519 1.9343812050728546 0.9811680158927187
10.312039972324648 2.2956646669713923 0.9811680158927187
10.769520842358396 -2.462876148624469 1.0663460493928323
10.848913479271534 -2.085524973894011 1.0663460493928323
10.915088386257192 -1.7056329082333586 1.0663460493928323
10.967964939384668 -1.3236627916066321 1.0663460493928323
11.007478716718989 -0.9400799957629556 1.0663460493928323
11.033581576809102 -0.5553518572526643 1.0663460493928323
11.046241717340823 -0.1699471080497064 1.0663460493928323
11.045443713883062 0.21566469552606496 1.0663460493928323
11.031188538680107 0.6010137448909375 1.0663460493928323
11.003493559467104 0.9856305515867307 1.0663460493928323
10.962392518310137 1.369046519280163 1.0663460493928323
10.907935490496726 1.7507945146753023 1.0663460493928323
10.840188823526802 2.1304094366435304 1.0663460493928323
11.309468464073646 -2.4683517409449958 1.159473378583112
11.388723274900666 -2.0721533303880673 1.159473378583112
11.454102680715556 -1.6734303201888123 1.159473378583112
11.505527026783255 -1.2726684929165872 1.159473378583112
11.542933660459394 -0.8703561151252962 1.159473378583112
11.566277007522888 -0.46698334247580714 1.159473378583112
11.57552862770111 -0.06304162255678072 1.159473378583112
11.57067724931997 0.3409769038685136 1.159473378583112
11.551728783036733 0.7445800024599097 1.159473378583112
11.518706314638775 1.1472759450120655 1.159473378583112
11.471650076917118 1.5485741085495357 1.159473378583112
11.410617400648968 1.9479855730752933 1.159473378583112
11.335682644748996 2.3450237172444335 1.159473378583112
11.901271725571828 -2.4735951020758047 1.261727737015181
11.980349016506429 -2.056739861431761 1.261727737015181
12.044830097595709 -1.6373788000830511 1.261727737015181
12.094636408574914 -1.2160228448853094 1.261727737015181
12.12970726812619 -0.7931853531650345 1.261727737015181
12.149999947809425 -0.3693814872727653 1.261727737015181
12.15548972412027 0.05487241306288936 1.261727737015181
12.146169908611931 0.4790594598156742 1.261727737015181
12.122051856043994 0.9026628464101264 1.261727737015181
12.083164950548412 1.3251664773707803 1.261727737015181
12.029556569829461 1.7460555971050054 1.261727737015181
11.961292027441312 2.1648174170534045 1.261727737015181
12.552993994385014 -2.47860359824691 1.3745315791284207
12.631849067718008 -2.0390005273909315 1.3745315791284207
12.69531417874917 -1.596913248476281 1.3745315791284207
12.743312005016763 -1.1528803767539906 1.3745315791284207
12.775784068562977 -0.707442897880234 1.3745315791284207
12.792690807180321 -0.26114350880863474 1.3745315791284207
12.794011622612071 0.18547404340237408 1.3745315791284207
12.77974490564808 0.6318656240615833 1.3745315791284207
12.74990803808535 1.0774873737893114 1.3745315791284207
12.704537371550988 1.5217963711262836 1.3745315791284207
12.64368818321335 1.9642512939997991 1.3745315791284207
12.567434608435327 2.4043130792412932 1.3745315791284207
13.274466674353036 -2.483374694211405 1.499619127077467
13.35304875487081 -2.0185896835171873 1.499619127077467
13.415362202360257 -1.5513453322335085 1.499619127077467
13.461331097484258 -1.0822109056289317 1.499619127077467
13.490899434225073 -0.6117579717376572 1.499619127077467
13.504031188119033 -0.14055970499191184 1.499619127077467
13.500710360146812 0.33080981210280347 1.499619127077467
13.48094099622576 0.8017762883988167 1.499619127077467
13.444747182280574 1.2717659237915855 1.499619127077467
13.392173014898324 1.7402061083067368 1.499619127077467
13.32328254760353 2.206526119737118 1.499619127077467
14.07780170788031 -2.4879059571187954 1.6391267381948882
14.15605255719594 -1.9950821977480562 1.6391267381948882
14.217056437043363 -1.4998277380382148 1.6391267381948882
14.26073902359191 -1.0027459692603262 1.6391267381948882
14.287047096338657 -0.5044425089800694 1.6391267381948882
14.295948602949412 -0.005524463206032294 1.6391267381948882
14.28743269830954 0.4934003132754431 1.6391267381948882
14.261509757737073 0.9917239574776843 1.6391267381948882
14.218211364341974 1.4888393388011036 1.6391267381948882
14.157590270546988 1.984140798728313 1.6391267381948882
14.07972033381694 2.4770248887257322 1.6391267381948882
14.978093308903176 -2.492195060272674 1.7957166389011368
15.055945412441904 -1.9679489643349948 1.7957166389011368
15.115454165686176 -1.4413052257235723 1.7957166389011368
15.15654706638678 -0.9129054787106564 1.7957166389011368
15.17917404917409 -0.3833934969942403 1.7957166389011368
15.183307546555001 0.14658559064102236 1.7957166389011368
15.168942522499668 0.6763860863138682 1.7957166389011368
15.136096478577144 1.20536250972983 1.7957166389011368
15.084809432632401 1.7328703845995472 1.7957166389011368
15.015143870030757 2.25826702383385 1.7957166389011368
15.99439578647644 -2.4962397867617394 1.9727493408080248
16.071769944924174 -1.936522781921156 1.9727493408080248
16.12956312736039 -1.3744464223692687 1.9727493408080248
16.167704921694654 -0.8106955115689658 1.9727493408080248
16.186148858025856 -0.2459568931658864 1.9727493408080248
16.184872465258653 0.31908138582476064 1.9727493408080248
16.163877298481015 0.8837309132974996 1.9727493408080248
16.123188937069607 1.4473037507806976 1.9727493408080248
16.06285695352524 2.009113271583621 1.9727493408080248
17.151113082347816 -2.500038032953298 2.1745286530757686
17.227915156752797 -1.8999498628707707 2.1745286530757686
17.28372767029617 -1.2975468965451764 2.1745286530757686
17.318482624027435 -0.6935630691979191 2.1745286530757686
17.332137674389067 -0.088734242086045 2.1745286530757686
17.324676184805597 0.5162026940313489 2.1745286530757686
17.29610724595273 1.120510716680995 2.1745286530757686
17.246465664681747 1.7234535696238094 2.1745286530757686
17.17581192161273 2.324296659869708 2.1745286530757686
18.480017531698117 -2.5035878118387354 2.4066576437612497
18.556133958914856 -1.8571193828787833 2.4066576437612497
18.609642595255973 -1.2083883400181046 2.4066576437612497
18.64047824869046 -0.5581850621030681 2.4066576437612497
18.648603350724475 0.09269827832832336 2.4066576437612497
18.634008002172767 0.7434686801866467 2.4066576437612497
18.596709985219302 1.3933332799807339 2.4066576437612497
18.53675474175242 2.041500317799703 2.4066576437612497
20.023257403039334 -2.506887256220693 2.6765689495811578
20.098548879171727 -1.8065585225273306 2.6765689495811578
20.14935336943897 -1.1040287755532765 2.6765689495811578
20.1756089763955 -0.40015393957880674 2.6765689495811578
20.17728371162862 0.30420842233205075 2.6765689495811578
20.154375534731404 1.008200153140012 2.6765689495811578
20.106912355788676 1.7109635473627003 2.6765689495811578
20.034952001372833 2.4116423960566573 2.6765689495811578
21.837968457526767 -2.5099346217320853 2.9943379175480582
21.912260812239232 -1.7462715292039144 2.9943379175480582
21.959856452477013 -0.9804808738099163 2.9943379175480582
21.98069739028402 -0.21349565350268151 2.9943379175480582
21.974758234187842 0.5537496783718618 2.9943379175480582
21.94204622013532 1.320320351561908 2.9943379175480582
21.882601202676682 2.0852824177833353 2.9943379175480582
24.003584955464216 -2.5127282896775163 3.3739717319536533
24.076655572724388 -1.673484569493666 3.3739717319536533
24.120392493893675 -0.8322019661424238 3.3739717319536533
24.134742432270794 0.01009454711367701 3.3739717319536533
24.119687904666264 0.8523787617190656 3.3739717319536533
24.075247252703 1.6936244841021824 3.3739717319536533
26.63389293478531 -2.5152667696880884 3.8355347318268267
26.705449831167783 -1.5842250784799237 3.8355347318268267
26.744470250590172 -0.6512532530447974 3.8355347318268267
26.750906652682044 0.28251202416129073 3.8355347318268267
26.724751195678905 1.2159331039835797 3.8355347318268267
26.66603574597617 2.1478727566188005 3.8355347318268267
29.897849507303032 -2.5175487021811347 4.408819413814746
29.9674977278262 -1.4725951792416627 4.408819413814746
30.00063516850716 -0.42584752591218317 4.408819413814746
29.99722145647888 0.621418957030838 4.408819413814746
29.95726075082362 1.6679283366969688 4.408819413814746
34.05763191388662 -2.5195728606169516 5.140055506412801
34.124816749471904 -1.3294437922331659 5.140055506412801
34.15042575237302 -0.13769500137366192 5.140055506412801
34.134427721964684 1.0542215496347271 5.140055506412801
34.07684214938266 2.2448536940752666 5.140055506412801
39.54321366841953 -2.5213381535451993 6.105059755454005
39.60711844365015 -1.1397639674390376 6.105059755454005
39.62276804606607 0.24319884549426807 6.105059755454005
39.59014340903739 1.6258653580962494 6.105059755454005
