# .PCD v0.7 - Point Cloud Data file format
VERSION 0.7
FIELDS x y z
SIZE 4 4 4
TYPE F F F
COUNT 1 1 1
WIDTH 357
HEIGHT 1
VIEWPOINT 0 0 0 1 0 0 0
POINTS 357
DATA ascii
4.957194393023472 -3.9596377467229096 0
5.039031594652538 -3.8549536863093077 0
5.11865851048264 -3.748578715801479 0
5.196040213516798 -3.6405594947772153 0
5.271142761582573 -3.530943404036926 0
5.34393321222022 -3.4197785248208548 0
5.414379637132344 -3.307113617719061 0
5.482451136188701 -3.192998101283408 0
5.548117850980021 -3.077482030350958 0
5.611350977914892 -2.9606160740882643 0
5.672122780853966 -2.842451493766199 0
5.730406603275946 -2.723040120275068 0
5.786176879970021 -2.602434331389866 0
5.839409148249606 -2.4806870287956584 0
5.890080058682493 -2.3578516148831477 0
5.938167385332675 -2.233981969324625 0
5.983650035509383 -2.109132425440562 0
6.026508059019034 -1.9833577463672218 0
6.066722656916045 -1.856713101035739 0
6.104276189748674 -1.7292540399732002 0
6.139152185296266 -1.6010364709363485 0
6.171335345794509 -1.472116634388594 0
6.200811554645545 -1.3425510788310873 0
6.227567882609978 -1.2123966359986769 0
6.251592593478053 -1.081710395931634 0
6.272875149217563 -0.9505496819340727 0
6.291406214596163 -0.8189720254300545 0
6.307177661276122 -0.687035140728404 0
6.320182571379674 -0.5547968997073063 0
6.330415240523432 -0.422315306429788 0
6.337871180320516 -0.2896484717012182 0
6.342547120349311 -0.15685458757998877 0
6.344441009587978 -0.023991901852554155 0
6.343552017314104 0.10888130751597276 0
6.339880533469081 0.2417067579444623 0
6.333428168487068 0.37442618780043435 0
6.324197752588598 0.506981381955536 0
6.312193334539153 0.6393141973206204 0
6.297420179873239 0.7713665883492283 0
6.279884768584749 0.9030806324982821 0
6.259594792284625 1.0343985556348283 0
6.2365591508270635 1.165262757377681 0
6.210787948405742 1.2956158363628536 0
6.182292489121789 1.4254006154216936 0
6.151085272025429 1.554560166660679 0
6.11717998563349 1.6830378364318732 0
6.080591501925163 1.8107772701830873 0
6.041335869818663 1.937722437176851 0
5.999430308131644 2.063817655067344 0
5.9548931980284525 2.1890076143245123 0
5.907744074957545 2.3132374024946607 0
5.858003620082594 2.436452528286863 0
5.805693651211045 2.55859894547465 0
5.7508371132241045 2.6796230766024665 0
5.693458068012362 2.7994718364865143 0
5.633581683921439 2.9180926554996693 0
5.571234224712333 3.035433502630258 0
5.506443038041255 3.151442908304578 0
5.439236543464048 3.266069986963154 0
5.36964421997043 3.379264459380825 0
5.297696593053532 3.490976674720877 0
5.22342522132041 3.6011576323135386 0
5.1468626826494 3.7097590031492946 0
5.068042559900377 3.8167331510775884 0
4.98699942618421 3.922033153701609 0
6.208263324457055 -3.9596377467229096 0
6.2898261459953515 -3.828753275444202 0
6.368630041905317 -3.696189386437406 0
6.444640446193711 -3.562004226605517 0
6.517824018185046 -3.4262566539944985 0
6.588148657145909 -3.2890062119761967 0
6.655583516365397 -3.15031310313065 0
6.7200990166855155 -3.010238162839249 0
6.781666859475567 -2.868842832600325 0
6.840260039044865 -2.7261891330788806 0
6.895852854488332 -2.582339636902274 0
6.948420920959752 -2.4373574412137997 0
6.99794118036778 -2.291306139996192 0
7.04439191148998 -2.144249796177206 0
7.087752739500471 -1.996252913529498 0
7.128004644907 -1.8473804083771408 0
7.165129971893514 -1.6976975811211756 0
7.199112436064597 -1.547270087596701 0
7.229937131588332 -1.396163910274052 0
7.257590537734495 -1.2444453293167081 0
7.282060524805198 -1.092180893508623 0
7.303336359455369 -0.9394373910637293 0
7.321408709400762 -0.7862818203304187 0
7.33626964751139 -0.6327813604038541 0
7.34791265528864 -0.47900334165899694 0
7.356332625724497 -0.32501521621727963 0
7.361525865541645 -0.17088452835987605 0
7.363490096813462 -0.016678884900547405 0
7.362224457963192 0.13753407446894095 0
7.357729504141866 0.29168670684782355 0
7.35000720698479 0.4457113957967469 0
7.339060953746721 0.5995405809965744 0
7.324895545816107 0.7531067878825753 0
7.3075171966090355 0.9063426572409989 0
7.2869335288438295 1.0591809747550518 0
7.263153571197468 1.2115547004873184 0
7.236187754345308 1.363396998285694 0
7.206047906385853 1.5146412650999295 0
7.172747247652545 1.6652211601959301 0
7.136300384914905 1.8150706342549952 0
7.096723304971507 1.9641239583452301 0
7.0540333676376505 2.1123157527524317 0
7.008249298130766 2.259581015657787 0
6.959391178856915 2.405855151649824 0
6.907480440601989 2.5510740000580916 0
6.852539853131453 2.6951738630961497 0
6.794593515202771 2.8380915338015242 0
6.733666843994908 2.9797643237603713 0
6.669786563959498 3.1201300906046856 0
6.602980695098628 3.2591272652699965 0
6.533278540674335 3.396694879001597 0
6.460710674355227 3.5327725900974523 0
6.385308926805863 3.6673007103760646 0
6.30710637172477 3.800220231357684 0
6.226137311337222 3.9314728501473777 0
7.7980298166831785 -3.9596377467229096 0
7.879243976158592 -3.7954597180475123 0
7.957002038814616 -3.6296168752986615 0
8.031269897395038 -3.462181962628346 0
8.102014975562511 -3.293228422523038 0
8.169206242187604 -3.1228303635893946 0
8.232814224960082 -2.9510625280477716 0
8.292811023316437 -2.7780002589478188 0
8.349170320678 -2.6037194671205244 0
8.401867395994255 -2.4282965978812174 0
8.450879134586312 -2.2518085974981275 0
8.496184038285772 -2.0743328794412044 0
8.537762234864532 -1.895947290426016 0
8.575595486751402 -1.7167300762676028 0
8.6096671990317 -1.536759847559279 0
8.63996242672634 -1.3561155451914275 0
8.666467881347192 -1.1748764057254177 0
8.689171936725844 -0.9931219266378284 0
8.708064634113228 -0.810931831450229 0
8.723137686547863 -0.628386034759808 0
8.734384482490784 -0.4455646071861886 0
8.741800088725576 -0.26254774024980954 0
8.74538125252226 -0.07941571119727286 0
8.745126403064033 0.1037511522109087 0
8.741035652136294 0.28687250693472294 0
8.733110794077596 0.4698680298957711 0
8.721355304992608 0.6526574532096223 0
8.705774341227361 0.8351605993939654 0
8.686374737107519 1.0172974165370994 0
8.66316500194061 1.198988013411346 0
8.636155316283574 1.3801526945159854 0
8.605357527477212 1.5607119950343369 0
8.570785144449571 1.7405867156896533 0
8.53245333179048 1.9196979574845394 0
8.490378903099844 2.0979671563086613 0
8.444580313612663 2.2753161173995635 0
8.395077652103941 2.451667049641474 0
8.341892632077098 2.6269425996870583 0
8.285048582239694 2.801065885887154 0
8.224570436270705 2.973960532013607 0
8.160484721883774 3.145550700760405 0
8.092819549191281 3.315761127008426 0
8.021604598374328 3.484517150839211 0
7.946871106664015 3.651744750283269 0
7.868651854639774 3.8173705737885615 0
9.559411150222891 -3.9596377467229096 0
9.64023900966476 -3.7585721305858155 0
9.716838341664113 -3.5558578804902763 0
9.789175547222303 -3.3515839136061523 0
9.857218896850204 -3.145839831246637 0
9.920938544485816 -2.9387158795661583 0
9.98030654058573 -2.7303029099754332 0
10.035296844384728 -2.5206923392910383 0.06119111682811634
10.085885335318117 -2.3099761096369695 0.06119111682811634
10.13204982360181 -2.09824664811579 0.06119111682811634
10.173770059965491 -1.8855968262670462 0.08136348303591406
10.21102774453463 -1.672119919330744 0.11900522148697416
10.243806534857391 -1.4579095653337437 0.1567762864437567
10.272092053072994 -1.243059724017026 0.19466011026882635
10.2958718922183 -1.0276646356218464 0.23264007586498128
10.315135621669933 -0.8118187795528494 0.2706995239640614
10.32987479171948 -0.5956168329362789 0.308821760434254
10.340082937279826 -0.37915362909146216 0.3469900636026916
10.345755580720944 -0.16252411593378133 0.3851876915901301
10.346890233833939 0.05417668567262033 0.423397889654491
10.343486398922455 0.27085372359412974 0.46160389754004433
10.335545569020981 0.48741195612067156 0.4997889568290111
10.323071227239959 0.7037563936541431 0.5379363182923593
10.306068845237977 0.9197921403739915 0.5760292492365688
10.284545880821712 1.1354244358616574 0.6140510408431445
10.2585117746747 1.3505586966656264 0.6519850154976559
10.227977946216331 1.5651005577888548 0.6898145341050894
10.19295778859292 1.7789559140803797 0.7275230033883071
10.153466662803027 1.9920309615129475 0.7650938831664047
10.109521890959616 2.2042322383285566 0.8025106936097821
10.06114274869201 2.415466666033877 0.8397570224687421
10.00835045669095 2.625641590227555 0.8768165322724437
9.951168171400509 2.8346648212414953 0
9.889620974860907 3.0424446745782894 0
9.823735863706705 3.248890011127077 0
9.753541737325174 3.4539102771401646 0
9.679069385180084 3.6574155439528977 0
9.600351473306418 3.859316547429339 0
10.880416322971142 -3.9596377467229096 0.2783361609506942
10.960954464148815 -3.7309070855900357 0.2783361609506942
11.036684768435578 -3.5005399253017897 0.2783361609506942
11.107574018017063 -3.2686373125083796 0.2783361609506942
11.173591118525493 -3.0353009673602305 0.2783361609506942
11.234707112678699 -2.8006332388901622 0.2783361609506942
11.290895192981742 -2.564737060119723 0.2783361609506942
11.342130713485567 -2.3277159029093624 0.2783361609506942
11.38839120059753 -2.089673732572256 0.2783361609506942
11.429656362939065 -1.8507149622716808 0.304659140918278
11.46590810024614 -1.6109444072219514 0.3469371589529896
11.497130511308642 -1.3704672387130046 0.3893397720054929
11.523309900945165 -1.129388937978792 0.4318483808882839
11.544434786010182 -0.8878152499297287 0.4744443399205839
11.560495900430917 -0.645852136769478 0.5171089651069515
11.571486199271762 -0.4036057315164273 0.5598235423327012
11.57740086182441 -0.1611822914502394 0.6025693355725317
11.578237293722387 0.08131184849610311 0.6453275951087661
11.573995128079014 0.32377032237831355 0.6880795657555985
11.564676225648354 0.5660867798964195 0.7308064950857371
11.550284674009 0.80815493304352 0.7734896416558397
11.530826785771147 1.0498686027272175 0.8161102832271292
11.506311095807666 1.2911217653432767 0.8586497249775873
11.476748357510427 1.531808599281083 0.9010893077021205
11.442151538073503 1.7718235313404973 0.9434104159971044
11.402535812805336 2.011061283039751 0.9855944864257151
11.35791855847234 2.2494169167940656 1.0276230156604662
11.308319345676882 2.4867858819447495 1.0694775685993791
11.25375993027296 2.7230640606185723 1.1111397864522294
11.194264243823374 2.958147813397299 1.1525913947933175
11.129858383102558 3.1919340247773684 1.193814211577236
11.060570598649653 3.4243201483997656 1.2347901551141174
10.986431282376904 3.6552042520302357 1.2755012520008588
10.907472954238754 3.8844850622701355 1.3159296450048508
12.516209672062754 -3.9596377467229096 0.5514826414830772
12.596389056727231 -3.696649614430955 0.5514826414830772
12.671043248836877 -3.4320400094426993 0.5514826414830772
12.74013950259569 -3.16592499827632 0.5514826414830772
12.803647510103117 -2.8984213077708962 0.5514826414830772
12.861539414648103 -2.6296462738861646 0.5514826414830772
12.913789822927976 -2.359717790235084 0.5514826414830772
12.960375816186765 -2.0887542563718045 0.5514826414830772
13.001276960268148 -1.8168745258577066 0.583772603429394
13.03647531457854 -1.5441978541283028 0.6318528576650729
13.065955439956417 -1.2708438461838623 0.6800525445504739
13.089704405444465 -0.9969324041267034 0.7283505221099144
13.107711793961508 -0.7225836745681707 0.7767256052541736
13.119969706871796 -0.4479179959283586 0.8251565750729732
13.126472767449597 -0.17305584565170423 0.8736221881422921
13.127218123237611 0.10188221263840225 0.9221011858424344
13.122205447298159 0.37677558202280687 0.9705723036827634
13.111436938356576 0.651503685184387 1.0190142806290083
13.094917319836787 0.9259460172972469 1.0674058684290588
13.072653837789453 1.1999821988841184 1.1157258409331485
13.044656257713616 1.4734920286187767 1.1639530034043473
13.010936860273224 1.746355536050316 1.2120662018152721
12.971510435910435 2.0184530342261535 1.2600443321269448
12.926394278358027 2.2896651721906824 1.307866349545718
12.875608177053802 2.5598729873365476 1.355511277754219
12.819174408460295 2.8289579575855734 1.402958218112257
12.75711772629356 3.0968020533764675 1.4501863588236543
12.68946535066539 3.3632877894364857 1.4971749840649902
12.616246956143668 3.6282982763143563 1.5439034830722456
12.53749465873612 3.8917172716518564 1.5903513591813638
14.614059226342068 -3.95963774672291 0.9064945456735443
14.693778517932005 -3.652715568213126 0.9064945456735443
14.767052632630055 -3.3441911879317447 0.9064945456735443
14.833849429987781 -3.034199934868785 0.9064945456735443
14.894139610722208 -2.722877781433146 0.9064945456735443
14.947896729567454 -2.4103612838106185 0.9064945456735443
14.995097206874506 -2.0967875220658265 0.9064945456735443
15.035720338954027 -1.7822940400143805 0.9448819802800464
15.069748307157678 -1.4670187848916154 1.0004735141079346
15.097166185693972 -1.1511000468443726 1.0561785113370334
15.117961948175212 -0.8346763982723718 1.1119725379144907
15.132126472892669 -0.5178866330457756 1.1678311207362397
15.139653546817657 -0.2008697056256125 1.2237297583817117
15.140539868326783 0.11623532988624441 1.279643931860968
15.13478504865014 0.43328938074079876 1.3355491153695398
15.122391612041836 0.7501533765526123 1.3914207870462565
15.103364994672775 1.0666883303006698 1.447234439729345
15.07771354224617 1.3827553992926782 1.5029655917060802
15.045448506336843 1.698215946066063 1.5585897974512726
15.006584039455914 2.0129315991989416 1.6140826583498855
14.96113718884304 2.3267643140044005 1.6694198333990728
14.909127888988932 2.6395764330814577 1.7245770498849473
14.850578952891428 2.951230746696148 1.7795301140293944
14.785516062048965 3.2615905529662483 1.8342549216022657
14.713967755195808 3.5705197178232435 1.8887274684942872
14.635965415784044 3.877882734725221 1.9429238612460575
17.427825902403274 -3.9596377467229096 1.3880433419516203
17.506928088463223 -3.5937884850292545 1.3880433419516203
17.578351157254186 -3.226362868930244 1.3880433419516203
17.64206378025764 -2.8575220634446326 1.3880433419516203
17.698038011011416 -2.4874278543400057 1.3880433419516203
17.746249297367935 -2.1162425771682067 1.3880433419516203
17.786676492263602 -1.7441290460595904 1.4331602947109274
17.81930186299461 -1.3712504823073686 1.4989088460282656
17.844111098995075 -0.9977704427733544 1.5647634537541764
17.861093318114136 -0.6238527481465183 1.6306952318811962
17.870241071389216 -0.24966141108581913 1.696675260552373
17.8715503463134 0.12463943572116915 1.7626745987464707
17.865020568595423 0.49888561155227823 1.8286642969724596
17.850654602411613 0.8729129596658373 1.8946154099677175
17.828458749149533 1.2465574193052429 1.9604990093943797
17.798442744644003 1.6196550976614335 2.0262861965282646
17.760619754906642 1.992042341761689 2.0919481149348087
17.715006370350803 2.363555810253233 2.1574559631264525
17.661622598514498 2.7340325450501486 2.2227810071959233
17.6004918552844 3.1033100428121854 2.28789459341988
17.531640954624876 3.471226326224089 2.352768160827381
17.4551000968165 3.837620015044209 2.4173732537276695
21.43649713625011 -3.9596377467229096 2.0805052582749437
21.514720154464563 -3.5098372088756986 2.0805052582749437
21.58350610535112 -3.0584971404274706 2.0805052582749437
21.64282481711832 -2.605815514049176 2.0805052582749437
21.692650270618685 -2.1519908908634107 2.0805052582749437
21.732960610761562 -1.6972223333489487 2.1338931300614776
21.763738156099496 -1.2417093180253573 2.214212364726895
21.78496940658389 -0.7856516479560034 2.2946276367191616
21.796645049486585 -0.3292493651078262 2.3751036732422315
21.798759963484724 0.12729733739368052 2.455605174846728
21.791313220907124 0.58378820307579 2.536096830913448
21.774308088141197 1.04002299995765 2.616543335141766
21.7477520242002 1.495801608378647 2.6969094010361463
21.71165667745146 1.9509241087775044 2.777159777383964
21.666037880507034 2.4051908693836057 2.857259263717853
21.610915643278968 2.8584026337820947 2.9371727257557945
21.546314144202316 3.310360608314317 3.0168651108121747
21.47226171962968 3.760866549275291 3.096301463173049
27.66588389735841 -3.9596377467229096 3.1646824508189186
27.74274070811457 -3.3793787757087435 3.1646824508189186
27.807428635890002 -2.7976374974740392 3.1646824508189186
27.85991930642162 -2.2146690829701585 3.1646824508189186
27.900189695566503 -1.6307292414109897 3.2297948487448433
27.92822213940102 -1.0460741081104328 3.3328853231554354
27.944004341968817 -0.4609601321329859 3.436056703909864
27.94752938067425 0.12435603619328922 3.539263736630684
27.938795709318835 0.7096176578520845 3.642461151302319
27.917807158779485 1.2945680177530632 3.7456036821279888
27.884572935328137 1.8789505373355821 3.84864608738478
27.839107616593605 2.46250888711253 3.951543169268163
27.781431145167318 3.04498709910491 4.054249793717245
27.711568819855884 3.6261296791178594 4.156720910212056
38.782351145690704 -3.9596377467229096 5.110654956790058
38.85676993147797 -3.1465730509745833 5.110654956790058
38.914144853745036 -2.3321281642908875 5.110654956790058
38.95445074595474 -1.5166603291167773 5.1958807816135195
38.977669928610624 -0.7005272365962238 5.3397870656739315
38.98379221701179 0.11591313032294226 5.483747530501299
38.972814925720186 0.9323026539121839 5.627699030277812
38.94474286973859 1.748283238744529 5.771578423118028
38.899588362398546 2.5634969687670592 5.915322598764986
38.83737120995933 3.3775862642947216 6.05886850627246

