# .PCD v0.7 - Point Cloud Data file format
VERSION 0.7
FIELDS x y z
SIZE 4 4 4
TYPE F F F
COUNT 1 1 1
WIDTH 357
HEIGHT 1
VIEWPOINT 0 0 0 1 0 0 0
POINTS 357
DATA ascii
4.910131357512586 -3.988574220365162 1.1202233081455821
5.09355918531632 -3.9043830888336766 1.1245007236594202
5.1074157779787885 -3.781276915272421 1.120572027534216
5.232859110976385 -3.616208908419719 1.1172126536828242
5.192668061066898 -3.5266459446825538 1.113395557098907
5.3637960639395095 -3.432548233267562 1.1128696722357916
5.344156967855221 -3.3006652361490434 1.124429926310599
5.473696708660813 -3.1935563144210652 1.1282229502505137
5.575558354085316 -3.0252234511725025 1.127113713004518
5.706787381017669 -2.9451803167250716 1.13343672356839
5.641125705526633 -2.855898046135126 1.1285673139531442
5.764365399910202 -2.6780861626744716 1.109877004377276
5.773319827621192 -2.6246615259829027 1.1444904610399291
5.837198613182399 -2.482077840654827 1.1132061107055362
5.856577498825604 -2.355375075519389 1.1186327076115063
5.9665070897848675 -2.207820395086093 1.1220213301353779
5.993015047319398 -2.1975604157537427 1.1029629902737
6.003014257975077 -1.9438561537567836 1.1103495981208897
6.081696375038676 -1.800103939550067 1.1405396122189282
6.138727400601278 -1.76652562026172 1.1369248321710477
6.185986985323837 -1.5689945874972595 1.1568068256113635
6.135140127433619 -1.4926980000436754 1.166472028879507
6.23024553029816 -1.3096191777294857 1.1798967873013473
6.182368978325791 -1.2107722558472775 1.197787116263943
6.252499390405612 -1.0002688290281425 1.1811872710070044
6.24699360904425 -0.9461949350977287 1.2146322519447668
6.278417783971456 -0.7856282336005174 1.2193542001585886
6.242582639980422 -0.7494926278832689 1.2331968036661078
6.277889245520181 -0.5225038174265332 1.242889793938152
6.393525736649255 -0.4173102210221104 1.267663431878375
6.3145671195131845 -0.34110271031281436 1.2572954025573952
6.334491995919286 -0.16039937678682958 1.2785525474339072
6.363836106535434 -0.029620428390045406 1.317822480188263
6.349062400980753 0.1363210062042732 1.2975396772733427
6.312659142863828 0.2831899358938719 1.3325170858913589
6.33757588486171 0.3890342151883342 1.3167142518745243
6.328790045950071 0.5235636587921767 1.3297367867539538
6.409352183935391 0.6457358920885832 1.3571680760362728
6.227816156468323 0.7677068038373891 1.3627543176745545
6.299145923940292 0.8993192606861345 1.3852136399761914
6.153102566278596 1.0143268535316368 1.3809110043953874
6.241748827630436 1.1107466852926307 1.3835208579614366
6.225794931489921 1.2526539684144913 1.4072653405244584
6.130700750540599 1.4056439891099786 1.3996908051545838
6.181165881161315 1.5390960097789896 1.4213705601560385
6.128528326718536 1.723445833197612 1.4607755104000124
5.990284968534055 1.7828982820462542 1.4454874539269575
6.102028958378125 1.95872254161757 1.484723221704699
6.0626664068059855 2.0846212709695986 1.472690996111916
5.990760463815985 2.214227575176956 1.4812849070983738
5.854581384040441 2.354065147606781 1.5197356069669123
5.864859528328212 2.4245505003374133 1.4948369868257272
5.856372017392977 2.5872420973749515 1.50870971607224
5.708624192641278 2.699425486309327 1.5191580121201012
5.6237895667781075 2.792343960949658 1.5424924586206963
5.685545448024233 2.9918467611611628 1.52846496753532
5.525732448453827 2.9877389348784966 1.5454994966377078
5.4936328628485045 3.156720429181532 1.5759175541649924
5.356305115873475 3.316290359739575 1.5586518029889391
5.415249530883612 3.385210912504668 1.5945303511341
5.240905014907182 3.5407689402000355 1.6058463186698873
5.230694947345211 3.621869897174515 1.608686568098032
5.171513390432379 3.685041451135267 1.6329003737014305
5.069267737229921 3.818118864717822 1.6189242693647616
5.029302853086994 3.874133314464823 1.6532375555708485
6.165187189981846 -3.923666601279023 1.2948473423863682
6.273609150097328 -3.9328237427104247 1.3150102693482904
6.40843036376503 -3.6968238791741665 1.2975285560458238
6.4505591444798 -3.6019419625366584 1.2957227683798402
6.499451470247628 -3.400930492789728 1.2986824755016864
6.634978486350292 -3.2688533367636494 1.3027952510686338
6.6856795565457645 -3.194713572571516 1.315650575090111
6.712968363772271 -2.969866112740756 1.2865037784499798
6.80145282296078 -2.835628536428017 1.2811724945900536
6.811215348098903 -2.7002439150284654 1.3081355699908308
6.92813303590743 -2.587817149551454 1.285372183389572
7.054069093586344 -2.448502251263994 1.3105707788102052
6.99098884656737 -2.288743756996762 1.3000887261553553
7.116461956599836 -2.1451490285237784 1.3152240372981414
7.081333721931313 -1.9437572451774499 1.289177756186913
7.140221369094175 -1.8783056985393571 1.2893102865739132
7.1149250998403115 -1.6466774149199062 1.351795534093205
7.169330308288815 -1.5083440313217857 1.3423724369969006
7.20204797758711 -1.4414495536700493 1.3639937328970684
7.2795605230867775 -1.274243249689929 1.358896630251684
7.344103127589238 -1.0710074267881253 1.3909518826073506
7.255992850420051 -0.9805018502921234 1.3730869752165393
7.310474813926348 -0.75093548014495 1.404974939836688
7.295289384538349 -0.6861875719934825 1.417291763436508
7.237305651158002 -0.4924337099278963 1.4245784485131447
7.357089143857924 -0.36113025240173724 1.4514256484282402
7.362068191705008 -0.1686493097645643 1.4409745791746011
7.296342413569122 -0.01813711832742901 1.4835865760525795
7.3292667820526525 0.08472826070240777 1.4850965722959546
7.299158881109984 0.2666687871169212 1.5040387851774952
7.374918797350872 0.40295818619072155 1.4960180931983895
7.38034656989157 0.5901174619164574 1.5185900333882787
7.343566469145338 0.7662524433898552 1.5299797589538453
7.357771160396297 0.8321852064033113 1.5495695069593454
7.329372981582035 1.0067025557745637 1.5859536300188428
7.21437744472437 1.189577606039906 1.5835023076672248
7.255129597373325 1.3510250353173006 1.5940343339806775
7.229668238102309 1.4607208715610778 1.5940486855309681
7.216310204875553 1.6676718316783068 1.6190887030908796
7.200932869339863 1.8764488589333366 1.6376574251709903
6.9498371264742405 1.9642178562752193 1.644740862139765
7.027413921693348 2.072451763768595 1.6686716351365212
6.999954730380843 2.278244444293419 1.6584946685933843
7.027391929399867 2.374480312012221 1.698462185368564
6.907211362422742 2.557744361986299 1.7069810256981126
6.826935190055016 2.8023410252769687 1.7097738287649804
6.868614259258629 2.837011193903989 1.716963147978767
6.696699025951167 2.962443726572269 1.7462033433052764
6.749212714840424 3.15244928546634 1.7417811475730287
6.534232501945781 3.226523149335558 1.7469624359660845
6.587210819881737 3.4136342288143604 1.7702326819163618
6.511427369111369 3.5647978457247818 1.7829457760330978
6.2859468674347445 3.6052518663807946 1.7934117284829432
6.25252453447252 3.6985262160254067 1.8110437081484196
6.199957118209831 3.973328487699668 1.803570013569612
7.811493238525792 -4.010909783457305 1.5485559937460551
7.955024770084461 -3.758839884213355 1.5560079650919592
7.971855496400002 -3.71935981786125 1.5353813422582945
8.081065247918364 -3.4576545519484223 1.546065588255162
8.130301735848862 -3.271451037665724 1.5442309612523843
8.263296544463925 -3.162333263810364 1.5350669448417689
8.202728157159207 -2.9347025512244986 1.553754800944581
8.237169436441693 -2.7370445947404956 1.5487516078658121
8.34799809108509 -2.5843669168988024 1.5376238122329817
8.481056658305791 -2.3586572452910253 1.562710150582937
8.468903882350174 -2.238601294125968 1.5457019446419082
8.426654948389965 -1.996356944435977 1.5384070897109592
8.552610848612057 -1.9168266671045273 1.5580059310882315
8.508584766733348 -1.7228201099579563 1.5707645826010255
8.62925796894696 -1.4900744129261685 1.5883293099091202
8.654642348535397 -1.3433179718562194 1.6104705522143652
8.673832360647284 -1.178399721846855 1.6139501080543832
8.714383188934947 -1.004690800201084 1.6377742954352557
8.662445844854975 -0.8531083543170875 1.6345132877323514
8.712635584899767 -0.6114895382729879 1.6523340870698158
8.68164569919102 -0.4848606682631743 1.6800198897796712
8.78876582056118 -0.32727480727353736 1.7098818574592327
8.736111251230264 -0.08839794316266625 1.7016083567035498
8.744014502729714 0.10852519558653079 1.7516412005088529
8.772460470094302 0.24436087371537238 1.740163317491243
8.683461786114954 0.5047086205197315 1.7457565014793313
8.7827531595018 0.6110153555062708 1.773060771490532
8.679641134974782 0.861427304801315 1.7967122838260414
8.686112917368332 0.9414787104908212 1.7975645069509982
8.637428880138748 1.2064575402563997 1.820119402388278
8.598177590240095 1.383889566280336 1.8580524026807381
8.677800098800322 1.5844927814308782 1.856637439973275
8.628614500359772 1.7280284123230512 1.8613412030942897
8.504766113896531 1.8886697645372241 1.885683644429857
8.511404336827573 2.1521549556935216 1.913988789445695
8.488713274722006 2.2930985956830368 1.9201997728242641
8.230064535705912 2.4443295372002383 1.9312658646076584
8.380502212556687 2.6399936565149544 1.9490247339148918
8.246342017798252 2.814775282068353 1.9511726028380894
8.224841816899298 3.019684626832845 1.9883070616425802
8.16274671200113 3.0978546387209094 2.0093331197737805
8.124297321549093 3.266992381716309 2.0245703214997315
8.01667892091673 3.488183571425075 2.013406368176863
7.994757656491306 3.637739702095103 2.0219962467338934
7.902150021462425 3.797937981664383 2.0420201461041794
9.528388370674342 -3.9548034653044635 1.8073904909240734
9.61081518658878 -3.7739061556031066 1.8128478202446776
9.736527029062612 -3.52098284406088 1.8317019714244787
9.775877765878374 -3.355808073429153 1.8039786327301421
9.852089766487886 -3.1797861360855033 1.8302119689056238
9.96429897138494 -2.941636579920752 1.8345265497180923
9.942274698394051 -2.6799942155710186 1.8275094343828893
10.108763758809806 -2.544178135905495 1.814453998460555
10.094622425419349 -2.311366588974665 1.8087355428929748
10.163611394120236 -2.142780963961337 1.837277688064903
10.092863980302852 -1.9353543840854244 1.8292447666188432
10.299269564488661 -1.7460496263204572 1.847701108185191
10.254390811323237 -1.510350387433337 1.8680202408264321
10.262214485057372 -1.2587123761876822 1.8745731583425271
10.305743731013186 -1.05902952620154 1.9048624821411981
10.328024069189416 -0.8270885500400375 1.9221050985458656
10.259417518414109 -0.6062519976262538 1.9654879444965594
10.379255512788882 -0.3762352133964065 1.9792295977512824
10.33770725995808 -0.14263694897007467 1.9802840842968177
10.37682981247496 0.04463636767604201 2.0276342505509968
10.278549638604726 0.2532972709123221 2.0272571144943585
10.343707745786743 0.4661546203677102 2.0506626164711674
10.290476712351749 0.6297496478113899 2.0633965510932253
10.305044374684165 1.0055265336089108 2.0881124146912233
10.213263666844993 1.1161318312569917 2.0923069200524784
10.28972102687278 1.3593146052321534 2.1307068211730273
10.18946120492416 1.5661831060302385 2.1435571255432846
10.152953602416481 1.833270853053163 2.160970041219881
10.219928638114654 2.0615610581692403 2.188777610645823
10.144962984177996 2.218011236222401 2.1986472836457254
10.147329622400303 2.4684539423887015 2.2237339463402144
10.057468916231787 2.6088614528222562 2.2277112396579115
10.010564882545516 2.7857579766072837 2.262257159328152
9.879875070215913 3.0937524836340153 2.267831983287113
9.816953268557134 3.2536451537616102 2.2862144384546457
9.817472898834268 3.4446730547832103 2.3092148918477755
9.682897823662575 3.685942733151639 2.32068515469242
9.585881697314717 3.8080878518284482 2.3382561036370033
10.959410579337746 -3.9330570572578076 2.0375601863928976
10.961046258323366 -3.7516643333310364 2.0360209711535275
11.026891999629159 -3.4800253298504513 2.024076476366284
11.07205828420293 -3.3359962310416917 2.0603509775195636
11.16326829449678 -3.0328368348017882 2.0515958948548247
11.281116144497345 -2.8737482016929903 2.0549310958147298
11.289375184343692 -2.5500996290622373 2.0430058646213727
11.340181208661566 -2.3466991385999028 2.045068508878615
11.421759369750099 -2.104294203318149 2.0259049910036824
11.411944271592542 -1.8396003366619493 2.0486020008720294
11.45119912764533 -1.609038765583646 2.09119122200396
11.474382430650332 -1.3976453645288542 2.1071017868013633
11.484717973533002 -1.1516294972811114 2.1346194503516105
11.628800685956312 -0.9203591655246408 2.135531645546359
11.639307128655139 -0.7150635728677213 2.153169880053411
11.52664086103405 -0.4134513608226998 2.185801777196961
11.593032389192174 -0.19079580137560467 2.213720371390618
11.627535343643688 0.12143259954898426 2.2241894596291836
11.657303326541205 0.2348695430181692 2.2447647490697715
11.612682420484616 0.5483613814794951 2.274169350000266
11.5130531790796 0.8296804457442548 2.2771401247849656
11.476002345226672 1.0919564362155825 2.337536877912742
11.461205482480242 1.241367081865314 2.3283447146841305
11.415900299422253 1.5579631792593893 2.3392782479288234
11.456545083008107 1.7813848927062232 2.3418716640712436
11.402164171298688 2.0445757138316605 2.396402102188978
11.395034524195472 2.203587093505698 2.4108749227428072
11.223284061079209 2.5286619044135206 2.4374106838033978
11.27433975500084 2.6755547803906143 2.4449891966386823
11.196662932386308 2.954872231071977 2.4941555796696333
11.126286489913085 3.198564766721509 2.506070830955604
11.083389140687917 3.3952977599911467 2.5041775449488113
11.010230043917023 3.6176861577072854 2.5325559244652247
10.90026246933339 3.925139987001815 2.5588415148120114
12.52237609261941 -3.9371419420212033 2.3064030905058748
12.575859892804363 -3.7214194404240653 2.322925084024807
12.716086880380589 -3.472419572455253 2.335222130556738
12.854192771326542 -3.121473547665799 2.312471030189405
12.866765849871612 -2.896998272625563 2.3160770961026818
12.806112066933979 -2.5873854174582074 2.302202643262846
12.953736217234663 -2.393550661543779 2.30156207888546
12.942021472340608 -2.0735991790476116 2.294330628944307
12.973583188444252 -1.8189501655474558 2.3217306748271294
13.054706656807982 -1.5433451728668357 2.3574738476216535
13.020140334903484 -1.2570582238853218 2.376207842545259
13.116954995837128 -1.0039810397353923 2.3919734944609212
12.993140322024304 -0.7065804772418333 2.4341844800074064
13.187533163917891 -0.4516244117549643 2.469243939083979
13.15826162370026 -0.14679081675471645 2.4738156816269785
13.060790170554263 0.09213607019892045 2.491387866896118
13.061024423138578 0.3167874925721286 2.517689550687078
13.075267522898317 0.7141791491201357 2.524595104956795
13.115789116316733 0.943771064787972 2.5829024505383087
13.023730987924838 1.2063081477939448 2.5771438759027334
13.110333106730511 1.5370919793344824 2.6178982842425955
13.026047483286824 1.771454775462799 2.64670492746045
12.940953346665538 2.0508727978188372 2.677442826946922
12.880404882596732 2.252474726523973 2.6925095521733993
12.85348835950667 2.5869316873013393 2.70719044059205
12.79258875429155 2.7554755279399217 2.739316554235328
12.801279897561782 3.1359935627713558 2.7646735543239758
12.650638490879512 3.3602172488750206 2.792663427112892
12.66227208813736 3.6661722824478336 2.8006369269915945
12.521040635120132 3.890621323231902 2.8289130096856505
14.608370016839539 -3.9441001481453513 2.6569815308156994
14.60345499596651 -3.6262539211496563 2.6751354265568463
14.721809519423868 -3.366256805611677 2.6646074780143674
14.872710846510754 -3.0262456194736247 2.668868772018925
14.7821764598489 -2.7011340722097255 2.6788551801720994
14.879242433071646 -2.472341031357644 2.65915845010428
15.001052871769922 -2.1233554412720936 2.651880940386605
15.044627504455999 -1.819370871378111 2.674191963875185
15.041823910725695 -1.4489406237515923 2.7174702817625858
15.051037257919202 -1.2034109761638423 2.7366110110456376
15.169363179780511 -0.7934592049658369 2.7627477930093574
15.112519800221339 -0.48502920979707675 2.800105839858655
15.21500777131826 -0.1689030088996636 2.8221117516482632
15.167646565714074 0.1449580530971954 2.866850801323495
15.21304050006249 0.4612451325251432 2.8909022779320805
15.124562934605535 0.8186119731507849 2.910931839099258
15.103030376265364 1.077982722688772 2.9275073367402618
15.079258726159072 1.3823087987878273 2.9766709832284013
15.079983017814017 1.6520904299041275 2.9880813410201688
15.014986269902883 2.018769138876034 3.007996124206376
14.90130825076266 2.327364721550698 3.0544228916221847
14.903667654452013 2.6962005593000304 3.075342182139517
14.884801480403755 2.8903550275917196 3.1007019939083875
14.789533211237872 3.300045100900611 3.132956805753242
14.665366363494286 3.564794124278991 3.151348406814204
14.605674662598707 3.8220739326302735 3.1702020218845313
17.354248237563564 -3.9849049494564692 3.141664594043166
17.54919435889672 -3.65036545261345 3.153236971205374
17.652140696322213 -3.2312278574194253 3.1399537026713253
17.621234547210662 -2.913422317162602 3.1389423292272385
17.671990052611207 -2.4795703528918382 3.158427959403453
17.868779203020434 -2.157041909954439 3.1433228629235086
17.751486602316124 -1.7860961639835993 3.173335535432948
17.85515754897923 -1.371995192092675 3.216979825699108
17.780732913934067 -1.0015272212593243 3.256679747580041
17.81248928489354 -0.5911524700287358 3.255525673844672
17.822496849934623 -0.2622826396223957 3.3046243078661703
17.892019840458307 0.1173263230948717 3.3481004764678906
17.792417409778338 0.508578880086133 3.386429371773799
17.829695424686676 0.8676813021179773 3.39950439401473
17.98213120626356 1.2460900640902137 3.4368959557407766
17.77537805227637 1.5563237113144994 3.456533442146208
17.743901785095314 2.0256493108200715 3.500591905995291
17.747295240006405 2.3650949516060624 3.518441323401265
17.616904454437776 2.732258432830759 3.5686040054722366
17.53420468770573 3.0810587828091416 3.593732926871082
17.322346942758504 3.513801289569294 3.614314635091784
17.430013687027323 3.8027593763639573 3.6586748251526244
21.450986434660003 -3.916495758028836 3.851228734860173
21.53954737443356 -3.4987453960233914 3.842273894413259
21.548329537367984 -3.1184065927256297 3.8575048182858107
21.622854029179425 -2.626322008449083 3.8387014385282527
21.69082201165818 -2.0949740446447516 3.8546640554905545
21.79235467938514 -1.6605401614508488 3.869445268551081
21.765429756982023 -1.322682187364751 3.9175354177258805
21.864944654998762 -0.8413835500578076 3.9554155770727557
21.798256341867933 -0.3232256710029963 3.9998562474874038
21.785404023920265 0.1442639098207052 4.019810906548559
21.772421493617724 0.599957726711175 4.073482764385436
21.754037538966923 1.0077196380175153 4.106530758683087
21.76487184147796 1.5150947678795998 4.141435372739455
21.722158267635294 1.9628809383491699 4.179542028308113
21.644780431174777 2.4197592509476182 4.216011551651086
21.574769197020725 2.771300767866773 4.276171774000867
21.603098767614703 3.3342754331668027 4.325718835884849
21.5465406002579 3.7552637550364767 4.336739299108577
27.684313063728375 -3.9344401192333684 4.925802088968009
27.690411586417717 -3.332287755285136 4.927920076975083
27.871588526363883 -2.8210268695332337 4.929421871452176
27.860436469228727 -2.263633767768074 4.92621819717122
27.844138435254763 -1.6414316607277335 4.95280523991729
27.84000806253217 -1.0283560911963774 5.011432548459604
27.911654854286674 -0.460061373076343 5.048044467194899
28.002490852168407 0.10350441417263492 5.12539377414316
27.945757180676345 0.7394095639457943 5.146212757092793
27.89495933311505 1.1990366235562289 5.210109539564606
27.86325090211215 1.8735495172313106 5.268653374264926
27.873141220870814 2.4497966540994573 5.336774502892748
27.703062683774522 3.0845849587808836 5.368002357053166
27.683700639873514 3.605226484270791 5.42491068877553
38.76248274237743 -3.9077566854870884 6.876151495916282
38.89414224398909 -3.1422340764906806 6.856900071009921
38.87721430920835 -2.3024634048394557 6.89895230748407
38.917263186257756 -1.553051987267139 6.891218876485388
38.958148454080515 -0.7421793084469377 6.9794545867809
38.99576609530872 0.1285543510617779 7.053598798667192
39.0265684091124 0.961682106173178 7.137034407636895
38.92545498686425 1.7364622834112624 7.194252808353367
38.94067813160862 2.5406413154159218 7.25253740943252
38.802183359541765 3.416991725834533 7.336936377963679
